# .PCD v0.7 - Point Cloud Data file format
VERSION 0.7
FIELDS x y z normal_x normal_y normal_z curvature
SIZE 4 4 4 4 4 4 4
TYPE F F F F F F F
COUNT 1 1 1 1 1 1 1
WIDTH 642
HEIGHT 1
VIEWPOINT 0 0 0 1 0 0 0
POINTS 642
DATA ascii
-7.2979999 8.9099998 -0.64700001 0.09829022 -0.31137648 -0.13615662 0.3537724
-7.3249998 8.8859997 -0.64700001 0.09124364 -0.32453316 -0.1464811 0.3675648
-7.3629999 8.875 -0.648 0.0893659 -0.34502473 -0.16698927 0.39359084
-7.3860002 8.8739996 -0.64899999 0.093374997 -0.34657985 -0.16976768 0.39706114
-7.4239998 8.8629999 -0.64999998 0.10096481 -0.35732412 -0.18424842 0.41451406
-7.4699998 8.8610001 -0.65200001 0.10485225 -0.37292624 -0.20510992 0.43833554
-7.5120001 8.8540001 -0.65399998 -0.09748666 0.4158352 -0.785411 0.89403188
-7.5549998 8.849 -0.65600002 -0.098680787 0.42052752 -0.7782895 0.89012122
-7.605 8.8509998 -0.65799999 -0.083441548 0.4144437 -0.7917738 0.89756995
-7.6420002 8.8369999 -0.65899998 -0.075346053 0.42318261 -0.7817682 0.89214468
-7.6960001 8.8430004 -0.662 -0.089585304 0.42801347 -0.77030778 0.88577372
-7.7189999 8.842 -0.66299999 -0.085580133 0.43532929 -0.76022482 0.88021439
-7.7639999 8.8369999 -0.66500002 -0.082348607 0.43709239 -0.75836098 0.87917143
-7.8210001 8.8450003 -0.66799998 -0.038524315 0.42414886 -0.78783286 0.8955819
-7.8909998 8.868 -0.67299998 -0.024050144 0.41961882 -0.79584336 0.90001386
-7.948 8.8760004 -0.676 -0.0043809069 0.41560629 -0.80226582 0.9035365
-7.9980001 8.875 -0.67900002 0.0070620431 0.41637152 -0.80119944 0.90295941
-6.803 9.7880001 -0.755 0.3092244 0.076389208 -0.10871536 0.33656213
-6.7750001 9.6820002 -0.74699998 0.32439509 0.053248424 -0.11859339 0.34947383
-6.763 9.6000004 -0.741 0.318097 0.034314346 -0.11232463 0.33908701
-6.7509999 9.5200005 -0.73500001 0.31552288 0.025577143 -0.1101236 0.33516577
-6.7399998 9.4720001 -0.73100001 0.30875093 0.020444045 -0.10475126 0.32667708
-6.7389998 9.4090004 -0.727 0.30114746 0.0062624095 -0.099236608 0.31713864
-6.7319999 9.3360004 -0.722 0.28610227 -0.029482706 -0.091206849 0.30173236
-6.7319999 9.2740002 -0.71799999 0.27260253 -0.057829849 -0.086459428 0.29177329
-6.7389998 9.2220001 -0.71499997 0.25898743 -0.084219187 -0.083542526 0.28486261
-7.3390002 8.7939997 -0.71799999 -0.073622048 0.40696847 -0.80385214 0.9040032
-7.4219999 8.8380003 -0.72500002 -0.084893391 0.41481575 -0.790663 0.89689857
-7.467 8.8059998 -0.72500002 -0.083437562 0.42196175 -0.78091192 0.8915363
-7.5100002 8.7449999 -0.72399998 -0.073598295 0.43548346 -0.76291025 0.88152969
-7.5469999 8.7320004 -0.72500002 -0.074222855 0.43888465 -0.75711703 0.87826818
-8.1470003 8.7399998 -0.75700003 0.0051452327 0.4437491 -0.7592507 0.87943238
-8.177 8.717 -0.75800002 -0.011095494 0.46315557 -0.72358757 0.85919446
-6.645 9.7250004 -0.81099999 0.3616426 0.070228614 -0.15541387 0.3998386
-6.619 9.6219997 -0.80299997 0.35243022 0.038512811 -0.14322788 0.38236701
-6.619 9.5570002 -0.79799998 0.3489016 0.03513144 -0.13970101 0.37746909
-6.6329999 9.5129995 -0.796 0.34395596 0.028550237 -0.13484696 0.37054625
-6.6329999 9.4499998 -0.79100001 0.33796299 0.015750214 -0.12930867 0.36219853
-6.6139998 9.3610001 -0.78399998 0.33788112 -0.021451097 -0.13158217 0.36323225
-6.6110001 9.2950001 -0.77899998 0.33188254 -0.039331481 -0.12858915 0.3580896
-6.6009998 9.25 -0.77600002 0.32478401 -0.055712923 -0.12530538 0.35254791
-6.598 9.1859999 -0.77100003 0.31262311 -0.069938026 -0.11816493 0.34144911
-6.598 9.125 -0.76700002 0.29848975 -0.090306886 -0.11221823 0.33142781
-6.6149998 9.0880003 -0.76499999 0.28351036 -0.11399636 -0.10844216 0.32424217
-6.6199999 9.0349998 -0.76200002 0.27285311 -0.13750538 -0.10952115 0.32457885
-6.6230001 8.9809999 -0.75800002 0.25812095 -0.15899318 -0.10865432 0.32204196
-6.6469998 8.9530001 -0.75800002 0.25451356 -0.16517334 -0.10911021 0.32243514
-6.651 8.901 -0.75400001 0.23898186 -0.18820924 -0.11073107 0.32372275
-6.658 8.8809996 -0.75300002 0.23043844 -0.20367873 -0.11409003 0.32802963
-6.7020001 8.7670002 -0.74800003 0.19202362 -0.26269099 -0.13167793 0.35102522
-6.8369999 8.743 -0.75300002 0.15148489 -0.30923593 -0.15185326 0.37634286
-7.4499998 8.7340002 -0.78600001 -0.07276608 0.43625915 -0.76183456 0.88091362
-7.4499998 8.7069998 -0.78399998 -0.063006893 0.44280261 -0.75353289 0.87627381
-7.4720001 8.6780005 -0.78299999 -0.067822129 0.44838279 -0.74230921 0.8698678
-7.5190001 8.677 -0.78600001 -0.068910562 0.45043772 -0.73819607 0.86751151
-7.5780001 8.6890001 -0.79000002 -0.074598931 0.45285544 -0.7319802 0.86396646
-8.2609997 8.6700001 -0.82800001 -0.0080926074 0.46928743 -0.7103579 0.85141325
-8.2980003 8.6540003 -0.82999998 -0.0065154335 0.46914321 -0.71038771 0.85134512
-6.4889998 9.7790003 -0.95200002 0.40389457 0.089631855 -0.20954648 0.46376118
-6.4829998 9.7040005 -0.94599998 0.40657723 0.066863656 -0.20903373 0.4620291
-6.4840002 9.6389999 -0.94099998 0.40465853 0.055918578 -0.20498827 0.45705098
-6.526 9.6370001 -0.94300002 0.40467346 0.055849798 -0.20499128 0.45705715
-6.5250001 9.5699997 -0.93699998 0.39488775 0.036575787 -0.19060594 0.44000539
-6.4759998 9.4350004 -0.92400002 0.39630547 0.0026778132 -0.19266173 0.44066283
-6.447 9.3299999 -0.91399997 0.39513159 -0.025293255 -0.19402763 0.44092566
-6.5500002 8.7559996 -0.87400001 0.24889849 -0.26516545 -0.16915429 0.40109393
-6.5710001 8.7270002 -0.87300003 0.2326162 -0.28492883 -0.17476371 0.407231
-6.6069999 8.717 -0.87400001 0.21433236 -0.29824254 -0.17492878 0.40680099
-6.6490002 8.7159996 -0.87599999 0.20022787 -0.30838376 -0.17604002 0.40765405
-6.6609998 8.7030001 -0.87599999 0.194049 -0.31421125 -0.17818284 0.41004005
-6.697 8.6940002 -0.87800002 0.18116128 -0.32876894 -0.18614438 0.4189966
-6.8200002 8.6820002 -0.884 0.14050086 -0.35966128 -0.20138082 0.43548936
-7.4959998 8.6680002 -0.92500001 -0.066841222 0.46232474 -0.71559459 0.8545686
-7.4970002 8.6140003 -0.921 -0.061020587 0.4669278 -0.70690703 0.84938955
-7.5240002 8.6169996 -0.92299998 -0.066481464 0.46835795 -0.70202279 0.84653115
-7.5770001 8.6239996 -0.92699999 -0.07044825 0.46992323 -0.6970768 0.84362721
-7.6100001 8.6059999 -0.92799997 -0.074634142 0.47146702 -0.69153064 0.84027731
-8.5410004 8.5939999 -0.99000001 -0.010628721 0.49631062 -0.63577056 0.80662346
-8.5889997 8.5880003 -0.99299997 -0.0068933424 0.49650839 -0.63498396 0.80608481
-6.4450002 9.8830004 -1.031 0.41380009 0.17369244 -0.25893855 0.51812041
-6.4159999 9.7709999 -1.02 0.42445809 0.08698874 -0.23982406 0.49522448
-6.3790002 9.6479998 -1.007 0.41791475 0.065079927 -0.2255443 0.47933117
-6.342 9.5270004 -0.99400002 0.41646653 0.036604062 -0.22064024 0.47272229
-6.3379998 9.4560003 -0.98799998 0.41191599 0.010343163 -0.21383193 0.46422607
-6.3369999 9.3889999 -0.98199999 0.41164449 -0.0028699487 -0.21421957 0.46405759
-6.322 9.3030005 -0.97399998 0.41028166 -0.021342939 -0.21430558 0.46337181
-6.3410001 9.3000002 -0.97500002 0.40987885 -0.025997775 -0.21445227 0.46332097
-6.3870001 9.3050003 -0.97799999 0.40684739 -0.029591896 -0.21068871 0.45911896
-6.3870001 9.2419996 -0.972 0.40154102 -0.053856231 -0.20843571 0.45561072
-6.3909998 9.1859999 -0.96799999 0.40181667 -0.065549701 -0.21194631 0.45899305
-6.3979998 9.1350002 -0.96399999 0.39753148 -0.082502656 -0.21137342 0.45772994
-6.3979998 9.0740004 -0.95899999 0.39373282 -0.1012563 -0.21333072 0.45911694
-6.4229999 8.8999996 -0.94499999 0.36270779 -0.16621816 -0.20656836 0.44928378
-6.4359999 8.8000002 -0.93800002 0.33493763 -0.21620002 -0.20900252 0.45011967
-6.467 8.7270002 -0.93400002 0.28578973 -0.26362619 -0.19861588 0.43660372
-6.4689999 8.7010002 -0.93099999 0.27878892 -0.27234063 -0.20021918 0.43815568
-6.5 8.6850004 -0.93199998 0.24571241 -0.30035889 -0.19973171 0.43644336
-6.527 8.665 -0.93199998 0.23041098 -0.31377417 -0.20212835 0.43863347
-6.5689998 8.6630001 -0.935 0.21692297 -0.324323 -0.20400801 0.44029564
-6.6020002 8.651 -0.93599999 0.19808015 -0.33986649 -0.2092548 0.4455699
-6.6360002 8.6389999 -0.93699998 0.18284379 -0.3523958 -0.21498254 0.45147774
-6.6760001 8.6339998 -0.93900001 0.16973676 -0.36094281 -0.21815836 0.45462441
-6.7150002 8.6289997 -0.94099998 0.15701 -0.37054732 -0.22391462 0.46053797
-6.763 8.6619997 -0.94700003 0.15493539 -0.36827698 -0.21983561 0.456027
-7.3899999 8.6820002 -0.99000001 -0.055871814 0.46160904 -0.72052592 0.85753262
-7.4060001 8.6730003 -0.99000001 -0.05392006 0.46265709 -0.71877962 0.85650635
-7.4330001 8.6499996 -0.99000001 -0.053972583 0.46592924 -0.7116549 0.85232377
-7.4759998 8.6450005 -0.99299997 -0.056753617 0.469818 -0.7022239 0.84679884
-7.4710002 8.5839996 -0.98799998 -0.05216112 0.47360536 -0.69395024 0.84177774
-7.5029998 8.566 -0.98799998 -0.058848836 0.47379658 -0.69119054 0.84005404
-7.552 8.5679998 -0.99199998 -0.062775753 0.47626409 -0.68380678 0.83567935
-7.592 8.559 -0.99400002 -0.068058334 0.47714442 -0.6793865 0.83298546
-7.6079998 8.5500002 -0.99400002 -0.067825407 0.47751963 -0.67830533 0.83230007
-8.5179996 8.5480003 -1.059 -0.010924399 0.50013864 -0.62006062 0.79670143
-8.5360003 8.5129995 -1.058 -0.010305875 0.50063795 -0.61674654 0.79443115
-8.5270004 8.4510002 -1.053 -0.010313797 0.49956998 -0.61904156 0.79554325
-8.474 8.3719997 -1.043 -0.01083436 0.49780354 -0.62390828 0.79824007
-6.4330001 9.9370003 -1.113 0.417063 0.21493782 -0.29668307 0.5551222
-6.395 9.8120003 -1.099 0.43281171 0.1413711 -0.27501121 0.53192377
-6.3429999 9.5679998 -1.073 0.42554897 0.053991158 -0.23613092 0.48965782
-6.4499998 9.6610003 -1.089 0.4283472 0.1026477 -0.25102237 0.50698137
-6.3239999 9.2519999 -1.043 0.41605917 -0.047318995 -0.2278671 0.47672606
-6.3390002 9.2130003 -1.041 0.41572052 -0.061516009 -0.2312209 0.47965702
-6.46 9.3249998 -1.058 0.40206495 -0.062279813 -0.21124098 0.45842966
-8.5270004 8.533 -1.138 -0.012900699 0.50641012 -0.58962536 0.77735174
-8.6420002 8.5389996 -1.148 0.0046141436 0.51124221 -0.55775583 0.75662506
-8.6879997 8.5319996 -1.151 0.0081138853 0.51206934 -0.54794246 0.75001454
-8.717 8.533 -1.153 0.010409883 0.51294559 -0.53682071 0.74256176
-8.7779999 8.5389996 -1.158 0.0090774149 0.51384979 -0.51945901 0.73072678
-8.8839998 8.533 -1.166 6.3150655e-06 0.51401401 -0.49962944 0.71682632
-8.9820004 8.5200005 -1.173 0.0076162936 0.51311308 -0.524064 0.73347533
-9.0450001 8.5249996 -1.179 0.010804065 0.51261067 -0.53066391 0.73789603
-9.1090002 8.5319996 -1.184 0.012822516 0.51206005 -0.53786248 0.74274212
-9.1639996 8.5559998 -1.191 0.011456395 0.51215917 -0.53773367 0.74269491
-6.375 9.927 -1.181 0.43398792 0.21107152 -0.33168989 0.58558935
-6.3990002 9.8950005 -1.1799999 0.41485435 0.25993243 -0.34594309 0.5994544
-6.3860002 9.8059998 -1.17 0.4392789 0.20274718 -0.33688313 0.58954442
-6.3169999 9.5679998 -1.142 0.46265149 0.085479423 -0.31637618 0.56696296
-6.427 9.6689997 -1.159 0.45788875 0.12860698 -0.32390133 0.57542503
-6.2880001 9.2360001 -1.108 0.42607862 -0.057226315 -0.24655414 0.49558732
-6.29 9.177 -1.103 0.42725486 -0.074337065 -0.25433975 0.50275385
-6.4169998 9.3000002 -1.123 0.4643797 -0.037683196 -0.31835929 0.5642882
-6.2870002 9.0489998 -1.09 0.42235002 -0.11520474 -0.26481244 0.5116418
-6.3309999 9.0209999 -1.09 0.41244268 -0.13322541 -0.25832218 0.50456744
-6.3569999 8.9390001 -1.084 0.40514636 -0.16292135 -0.26618555 0.51141149
-6.3569999 8.8789997 -1.079 0.39643553 -0.18071082 -0.26548013 0.51019335
-6.3530002 8.7559996 -1.067 0.37201765 -0.23479918 -0.27730989 0.52002746
-6.3449998 8.6879997 -1.0599999 0.36198425 -0.2509988 -0.27935252 0.52160406
-6.3839998 8.7119999 -1.0650001 0.3428542 -0.27043402 -0.27348971 0.5152477
-6.573 8.8540001 -1.091 0.2801089 -0.28887054 -0.21921185 0.45821503
-6.5289998 8.7370005 -1.077 0.26097032 -0.31567979 -0.23103049 0.47024921
-6.4790001 8.6129999 -1.062 0.23604088 -0.35208276 -0.25606906 0.49522614
-6.506 8.5930004 -1.062 0.22436258 -0.36165679 -0.25968224 0.49856701
-7.5500002 8.4960003 -1.131 -0.063644417 0.48661295 -0.65317792 0.81699705
-8.8079996 8.4709997 -1.2309999 0.018716637 0.50949192 -0.56193209 0.75874895
-8.9519997 8.4490004 -1.2410001 0.028707873 0.5046761 -0.58794713 0.77537346
-9.0109997 8.4510002 -1.2460001 0.031482469 0.504071 -0.5902499 0.77683568
-9.0760002 8.46 -1.253 0.014679617 0.50898284 -0.56294423 0.75906867
-9.1350002 8.4610004 -1.258 -0.00038263155 0.5106107 -0.5485639 0.7494303
-9.1759996 8.4720001 -1.262 -0.0058790073 0.51033247 -0.55096138 0.75102079
-9.2360001 8.474 -1.268 -0.0041458877 0.50777918 -0.57120734 0.76428705
-9.3050003 8.4840002 -1.274 -0.0037492153 0.50670391 -0.57843733 0.76899457
-9.3830004 8.5019999 -1.2819999 0.025397081 0.50362337 -0.59294999 0.77837735
-9.4519997 8.5109997 -1.289 0.062690124 0.49948999 -0.59763563 0.78140169
-9.5319996 8.5290003 -1.298 0.080855429 0.49425408 -0.60939461 0.78878796
-9.6389999 8.5699997 -1.3099999 0.097014524 0.48801878 -0.62326568 0.79751754
-6.3060002 9.5799999 -1.209 0.4695265 0.085808158 -0.33480078 0.58301777
-6.3990002 9.6540003 -1.223 0.46079364 0.16262043 -0.35899651 0.60634536
-6.2969999 9.4359999 -1.193 0.47427663 0.030545205 -0.33642456 0.58228242
-6.2909999 9.2080002 -1.17 0.47715497 -0.050292905 -0.36131316 0.60062754
-6.2849998 9.1370001 -1.1619999 0.47030413 -0.069476239 -0.34924653 0.58990341
-6.303 9.0419998 -1.154 0.45043069 -0.11620758 -0.32508093 0.5675118
-6.4530001 9.2259998 -1.183 0.47786137 -0.083560362 -0.38595352 0.61991447
-6.3210001 8.9180002 -1.143 0.42244396 -0.17030643 -0.30599025 0.54871964
-6.3039999 8.835 -1.133 0.39199549 -0.19024783 -0.26626843 0.51064038
-6.2919998 8.7019997 -1.119 0.37608966 -0.23410386 -0.28317523 0.52577209
-6.3779998 8.7629995 -1.131 0.33716744 -0.26111948 -0.25448364 0.49661574
-6.3920002 8.7530003 -1.131 0.32776737 -0.27131629 -0.25355071 0.49530995
-6.4250002 8.684 -1.127 0.27943227 -0.30553076 -0.23681954 0.47698525
-6.4780002 8.6420002 -1.127 0.22801191 -0.34263471 -0.23539308 0.47412854
-6.4060001 8.4899998 -1.1059999 0.22087567 -0.36985382 -0.26894975 0.50785029
-6.5190001 8.5830002 -1.124 0.19918551 -0.36363164 -0.24138278 0.47975877
-7.605 8.474 -1.199 -0.072297782 0.48393089 -0.65665877 0.81891197
-7.6560001 8.4779997 -1.2029999 -0.074573338 0.48144844 -0.66274768 0.82254982
-8.5270004 8.4560003 -1.275 -0.015289439 0.51322329 -0.52259052 0.73262048
-8.5839996 8.4580002 -1.28 -0.0070306044 0.51292926 -0.53025216 0.73777586
-8.6859999 8.5050001 -1.293 -0.0062093511 0.51369351 -0.51809394 0.729617
-8.7840004 8.5459995 -1.3049999 -0.0042467136 0.51384443 -0.51818615 0.72977465
-8.7069998 8.4200001 -1.288 0.0038360381 0.51057911 -0.55268443 0.75243992
-8.8529997 8.4799995 -1.306 0.005297753 0.51015389 -0.55791706 0.75601357
-8.8870001 8.4589996 -1.307 0.0079753678 0.50675601 -0.58048666 0.77060372
-8.9440002 8.46 -1.312 0.016373388 0.50473553 -0.59058446 0.77705598
-8.9779997 8.4379997 -1.313 0.022746827 0.50083482 -0.60787195 0.78794748
-9.0450001 8.448 -1.3200001 0.027431989 0.49850482 -0.61671799 0.79347378
-9.1020002 8.448 -1.325 0.027183928 0.49859661 -0.61601347 0.79297549
-9.158 8.4460001 -1.33 0.023457276 0.49807188 -0.61841923 0.79439801
-9.2030001 8.4610004 -1.336 -0.0020253037 0.504327 -0.5915361 0.7773447
-9.2580004 8.4569998 -1.34 -0.03360907 0.50721705 -0.56507272 0.76006967
-9.3280001 8.4680004 -1.347 -0.017782759 0.50768733 -0.56811261 0.76211196
-9.3929996 8.4729996 -1.354 0.047497883 0.49968782 -0.60348427 0.78494406
-9.4659996 8.4849997 -1.3609999 0.061916828 0.49340576 -0.62326813 0.79733688
-9.5530005 8.5089998 -1.3710001 0.058454957 0.49356133 -0.62416989 0.79787701
-9.6350002 8.5270004 -1.38 0.077442773 0.48265937 -0.65244353 0.81525451
-9.8649998 8.7019997 -1.416 0.11599408 0.49383733 -0.57752466 0.76867723
-6.2859998 9.7340002 -1.283 0.45679525 0.17821746 -0.36221731 0.60961032
-6.2719998 9.6440001 -1.272 0.4738093 0.10138458 -0.35457534 0.60041463
-6.2550001 9.5860004 -1.265 0.47752213 0.076739766 -0.35560989 0.60031223
-6.2490001 9.5100002 -1.256 0.48032928 0.051958345 -0.35790196 0.60125673
-6.1690001 9.3240004 -1.2309999 0.48780242 -0.014767425 -0.38727224 0.62301612
-6.2329998 9.3559999 -1.239 0.48121712 -0.00089563057 -0.35923135 0.60051465
-6.2340002 9.2950001 -1.232 0.4840214 -0.029835546 -0.37722591 0.6143828
-6.2329998 9.2299995 -1.225 0.48659062 -0.045549192 -0.39606518 0.62905705
-6.25 9.1929998 -1.223 0.48517925 -0.054031935 -0.39507884 0.62801725
-6.224 9.1230001 -1.2130001 0.48649323 -0.064757653 -0.40995726 0.63947964
-6.2360001 9.0790005 -1.209 0.47577387 -0.071075708 -0.36827362 0.60583657
-6.2649999 8.7329998 -1.175 0.37109283 -0.23316495 -0.27389258 0.5168103
-6.2670002 8.6780005 -1.17 0.35222346 -0.26030681 -0.27519286 0.51725441
-6.2870002 8.6490002 -1.168 0.32683337 -0.28827003 -0.27303633 0.514265
-6.3060002 8.618 -1.1670001 0.30601484 -0.31032333 -0.27459264 0.51511818
-6.3439999 8.6120005 -1.169 0.29207754 -0.32112753 -0.27201909 0.51227587
-6.3600001 8.5780001 -1.1670001 0.25346965 -0.34674299 -0.26536298 0.50487131
-6.3899999 8.5609999 -1.1670001 0.24983303 -0.35062963 -0.26742923 0.50682944
-6.4109998 8.5620003 -1.169 0.23615238 -0.35427952 -0.25918072 0.49845418
-6.4380002 8.5419998 -1.169 0.21932055 -0.36177394 -0.25488567 0.49391153
-6.473 8.533 -1.171 0.19994041 -0.36855763 -0.24896887 0.48764369
-6.5089998 8.5229998 -1.1720001 0.187938 -0.37258074 -0.24587053 0.4843443
-6.5430002 8.5120001 -1.174 0.17679659 -0.37686646 -0.24443281 0.48273468
-6.5840001 8.5109997 -1.177 0.17126082 -0.3786031 -0.24332538 0.48153692
-6.631 8.5170002 -1.181 0.16370274 -0.38236529 -0.24424204 0.48234424
-6.6900001 8.5089998 -1.1849999 0.1537413 -0.38731581 -0.24579558 0.48380303
-7.5149999 8.4139996 -1.244 -0.064276136 0.48510468 -0.65568238 0.81815487
-7.6630001 8.4460001 -1.2589999 -0.059189327 0.49472588 -0.62602282 0.80010104
-7.6989999 8.4320002 -1.261 -0.058057081 0.49489501 -0.62566161 0.79984009
-7.8299999 8.415 -1.271 -0.050468732 0.49391195 -0.63189155 0.80360627
-7.8670001 8.4289999 -1.275 -0.048261777 0.49528018 -0.6278674 0.80115485
-7.9289999 8.4420004 -1.2819999 -0.047407329 0.49598354 -0.62569261 0.79983646
-7.9699998 8.4329996 -1.285 -0.040728409 0.49535426 -0.63032824 0.8027131
-8.0100002 8.4219999 -1.2869999 -0.033400357 0.49440423 -0.63550037 0.80586088
-8.059 8.4200001 -1.291 -0.021389956 0.49179196 -0.64686537 0.81286633
-8.1569996 8.4160004 -1.3 -0.017178273 0.49112603 -0.6492368 0.81425321
-8.1969995 8.4049997 -1.302 -0.012538625 0.4902432 -0.6522311 0.81602758
-8.2309999 8.4130001 -1.306 -0.010747164 0.49228552 -0.64593542 0.81221497
-8.2849998 8.415 -1.311 -0.010309268 0.4934766 -0.64166385 0.80954182
-8.3339996 8.4119997 -1.3150001 -0.0035660495 0.49700481 -0.62906349 0.80171525
-8.3760004 8.401 -1.318 -0.0050299219 0.50664711 -0.58398217 0.77314407
-8.4379997 8.4110003 -1.325 -0.023253556 0.51264501 -0.52270174 0.73250443
-8.4899998 8.4099998 -1.329 -0.018574556 0.51196653 -0.53554785 0.74112499
-8.5559998 8.4219999 -1.336 -0.0099846553 0.5127793 -0.52698833 0.73536319
-8.5889997 8.4280005 -1.34 -0.01161165 0.51256651 -0.52936476 0.7369439
-8.6420002 8.4280005 -1.345 -0.0094470512 0.51236928 -0.53176779 0.73850423
-8.5340004 8.2690001 -1.321 -0.0022366995 0.50312024 -0.59606224 0.78001612
-8.7639999 8.3870001 -1.352 -0.003253215 0.5054478 -0.58595121 0.77383912
-8.8079996 8.3760004 -1.355 -0.00081787189 0.50066918 -0.60913664 0.78849083
-8.8629999 8.3760004 -1.36 -0.0032775155 0.49853617 -0.61808473 0.79408932
-8.8959999 8.3809996 -1.364 0.001522959 0.49757358 -0.62195796 0.7965008
-8.967 8.3950005 -1.372 0.0098115169 0.49178895 -0.64259064 0.80924374
-9.0050001 8.3769999 -1.374 0.014938873 0.48742822 -0.65565538 0.81712508
-9.0649996 8.3800001 -1.38 0.020783303 0.4816865 -0.67154092 0.82669282
-9.125 8.3830004 -1.386 0.024507662 0.47716898 -0.68281484 0.83338284
-9.1789999 8.3789997 -1.39 0.024820043 0.47443181 -0.68930292 0.8371619
-9.2559996 8.3970003 -1.399 0.025663599 0.47570944 -0.68603182 0.8352232
-9.3050003 8.3879995 -1.403 0.040283281 0.47353575 -0.68870342 0.83676237
-6.3870001 9.9390001 -1.3940001 0.44417962 0.18922219 -0.3351137 0.58770889
-6.3660002 9.8719997 -1.385 0.45904559 0.16900639 -0.35882264 0.60666275
-6.3210001 9.4750004 -1.337 0.49070752 0.037224907 -0.39650303 0.63197643
-6.323 9.0120001 -1.286 0.46315739 -0.11750232 -0.36335093 0.6002878
-6.348 8.927 -1.278 0.42389673 -0.19139127 -0.33239216 0.57166737
-6.335 8.8219995 -1.266 0.40094608 -0.23177193 -0.33074254 0.56909281
-6.3429999 8.7740002 -1.261 0.37470245 -0.25830093 -0.31246716 0.55204803
-6.3590002 8.7379999 -1.258 0.36359176 -0.26830325 -0.30538994 0.54538852
-6.3629999 8.6859999 -1.253 0.31097022 -0.29919806 -0.26594219 0.5068996
-6.3889999 8.665 -1.253 0.31272432 -0.30907929 -0.28221706 0.52246815
-6.408 8.6339998 -1.251 0.2759366 -0.32577023 -0.25935575 0.49953246
-6.4180002 8.6190004 -1.25 0.26822358 -0.33399931 -0.26245323 0.50237548
-6.4439998 8.5970001 -1.25 0.25364918 -0.33989364 -0.25528672 0.49501204
-6.4749999 8.5830002 -1.251 0.22461432 -0.35400993 -0.24803942 0.48713261
-6.5120001 8.5749998 -1.253 0.21036543 -0.36264974 -0.24864879 0.48743686
-6.5450001 8.5629997 -1.2539999 0.19919783 -0.36694592 -0.24606901 0.48464322
-6.5890002 8.5640001 -1.258 0.18639538 -0.37806213 -0.25353605 0.49188894
-6.6240001 8.5539999 -1.26 0.1774787 -0.38288465 -0.25464451 0.49289268
-7.6209998 8.4940004 -1.34 -0.048076969 0.50100565 -0.60610783 0.78783554
-8.5710001 8.4469995 -1.424 -0.028292386 0.51278245 -0.49253246 0.71157181
-8.6300001 8.4519997 -1.4299999 -0.031114029 0.51244658 -0.51035106 0.72389764
-8.677 8.4440002 -1.434 -0.026819946 0.51138794 -0.53584635 0.74119383
-8.7939997 8.5050001 -1.451 -0.034261554 0.51085728 -0.53967398 0.74390656
-8.9770002 8.6269999 -1.48 -0.02838167 0.51296669 -0.52036238 0.73124367
-8.908 8.427 -1.455 -0.017403118 0.49849412 -0.61785477 0.79406786
-8.9639997 8.427 -1.46 -0.018958561 0.49532893 -0.62942958 0.8011815
-9.0129995 8.4189997 -1.464 -0.013692998 0.49048951 -0.64645839 0.81158853
-9.4359999 8.6479998 -1.527 0.0031576685 0.50903898 -0.43195805 0.66762149
-9.4910002 8.6440001 -1.5319999 0.012410248 0.51038182 -0.44469735 0.67705196
-9.4940004 8.592 -1.528 0.03259198 0.51022381 -0.5448823 0.74718624
-9.5030003 8.5740004 -1.527 0.02901762 0.50911194 -0.55613428 0.75453454
-9.4840002 8.5030003 -1.5190001 0.029638508 0.49885932 -0.61257422 0.79056072
-9.4530001 8.4219999 -1.508 0.019703114 0.49057332 -0.64351511 0.80942082
-9.5410004 8.4460001 -1.5190001 0.036253434 0.47973534 -0.67324156 0.82747477
-9.6300001 8.4700003 -1.53 0.064007491 0.45711237 -0.71908176 0.85447484
-6.2820001 9.9160004 -1.4630001 0.39330822 0.22058728 -0.25884163 0.51995105
-6.2729998 9.7659998 -1.4450001 0.48482865 0.097414762 -0.39377481 0.63214481
-6.2709999 9.6949997 -1.436 0.48621687 0.10598219 -0.40780133 0.64338249
-6.2750001 9.6350002 -1.4299999 0.4891865 0.10714249 -0.42696732 0.65809119
-6.29 9.592 -1.426 0.49055836 0.10600027 -0.43614456 0.66491026
-6.3060002 9.5509996 -1.4220001 0.49569061 0.081240378 -0.45018488 0.67451882
-6.2839999 9.4849997 -1.4119999 0.49927589 0.03283653 -0.45148164 0.67393643
-6.3769999 8.5880003 -1.316 0.26417387 -0.3433668 -0.27196467 0.51152062
-6.4029999 8.566 -1.316 0.25913462 -0.34783331 -0.27313235 0.51258177
-6.4310002 8.5469999 -1.316 0.25183865 -0.35223702 -0.27189049 0.51129055
-7.9229999 8.3710003 -1.433 -0.059625395 0.48785889 -0.64771235 0.81307608
-8.0810003 8.4309998 -1.455 -0.047181252 0.4892934 -0.64845765 0.81371456
-8.1289997 8.4289999 -1.46 -0.025482208 0.48906609 -0.65446365 0.8174091
-8.1709995 8.4189997 -1.4630001 0.0025139672 0.49738368 -0.62876338 0.80171084
-8.1610003 8.3559999 -1.455 -0.016898779 0.47975272 -0.68021303 0.8325491
-8.2779999 8.4230003 -1.474 0.023776826 0.50374866 -0.59866387 0.78276849
-8.3009996 8.4189997 -1.475 0.029350217 0.50302565 -0.6004793 0.78388238
-8.2349997 8.3000002 -1.457 -0.0016661782 0.47087798 -0.7010954 0.84454936
-8.5670004 8.4219999 -1.502 -0.012438475 0.50990957 -0.55755424 0.75566477
-8.6099997 8.4110003 -1.506 -0.039258912 0.51058269 -0.53178686 0.73826367
-8.6429996 8.3900003 -1.507 -0.040843919 0.50921935 -0.54426551 0.74645662
-8.6759996 8.3950005 -1.511 -0.044540569 0.50703758 -0.56139517 0.75778329
-9.0579996 8.4420004 -1.5549999 -0.03713087 0.48480728 -0.65986162 0.81965488
-9.099 8.4530001 -1.5599999 -0.024609664 0.48122019 -0.67260969 0.8273949
-9.1339998 8.4320002 -1.562 -0.011125492 0.47519219 -0.68910062 0.83713263
-9.1759996 8.4180002 -1.5650001 0.023973387 0.46269864 -0.71609253 0.85290867
-9.2130003 8.3990002 -1.567 0.056675285 0.45539993 -0.72482324 0.85788691
-9.2670002 8.3950005 -1.572 0.066014215 0.45261762 -0.72762936 0.85945624
-9.3100004 8.3809996 -1.575 0.079546899 0.43992826 -0.74653476 0.87016016
-9.4879999 8.4879999 -1.604 0.0069267321 0.50030959 -0.60864174 0.78791016
-9.5469999 8.4870005 -1.61 0.038923822 0.48344183 -0.66284966 0.82134086
-9.5039997 8.4219999 -1.599 0.022333717 0.47682422 -0.6825701 0.83292383
-6.2080002 9.4490004 -1.4529999 0.4979341 0.010640177 -0.43845329 0.66354567
-6.2080002 9.3850002 -1.4450001 0.48592398 0.0027835108 -0.37585753 0.61432785
-6.1890001 9.3240004 -1.436 0.47639045 -0.0053242557 -0.34423065 0.58776778
-6.2119999 9.2959995 -1.4349999 0.47718814 -0.023687158 -0.3509357 0.59281152
-6.2090001 9.2290001 -1.427 0.47228396 -0.0447869 -0.34309411 0.58546698
-6.2150002 9.1750002 -1.421 0.46762782 -0.073871061 -0.34371871 0.58504295
-6.224 9.1260004 -1.415 0.46405229 -0.093609966 -0.34600496 0.58636749
-6.2210002 9.0609999 -1.4069999 0.45418772 -0.11603227 -0.334849 0.57608491
-6.237 9.0229998 -1.404 0.45514381 -0.1245265 -0.34479129 0.58441746
-6.2490001 8.9809999 -1.4 0.44906655 -0.14042027 -0.34245318 0.5819388
-6.2420001 8.9399996 -1.395 0.44357288 -0.15508068 -0.34215641 0.58127266
-6.2610002 8.908 -1.392 0.43193865 -0.18380143 -0.34398609 0.58196253
-6.25 8.8330002 -1.382 0.40484607 -0.22828133 -0.33514369 0.57300436
-6.2449999 8.7690001 -1.374 0.37503451 -0.25751615 -0.31208864 0.55169266
-6.2690001 8.7440004 -1.373 0.37184581 -0.26324886 -0.31407267 0.55336326
-6.276 8.6960001 -1.368 0.32838431 -0.30180436 -0.29525 0.53487819
-6.2880001 8.6549997 -1.365 0.27080235 -0.30380532 -0.22588837 0.46546444
-6.3119998 8.6590004 -1.367 0.31316933 -0.30172521 -0.27225608 0.51306576
-6.3249998 8.6199999 -1.364 0.22571979 -0.31717083 -0.20206326 0.43860728
-6.3709998 8.6260004 -1.368 0.31235588 -0.31323326 -0.287664 0.52766639
-6.381 8.5839996 -1.364 0.20983076 -0.33993345 -0.2170794 0.45465061
-6.4070001 8.5620003 -1.364 0.19767135 -0.34318754 -0.21236202 0.44938767
-6.4349999 8.5430002 -1.364 0.18008122 -0.35036817 -0.20987776 0.44635835
-6.474 8.5389996 -1.367 0.21019427 -0.36556849 -0.25264311 0.49157959
-6.5229998 8.5469999 -1.372 0.2319203 -0.37231627 -0.284439 0.52279246
-6.8759999 8.6379995 -1.415 -0.13634685 0.4490729 -0.70860207 0.84992582
-7.0040002 8.7690001 -1.441 -0.14460164 0.47728357 -0.62892908 0.80265874
-7.02 8.7329998 -1.439 -0.13023247 0.48130465 -0.62927908 0.80287409
-7.0209999 8.6780005 -1.432 -0.11278882 0.47208714 -0.67090607 0.82807153
-8.0450001 8.4309998 -1.5039999 -0.059101846 0.49007204 -0.64143085 0.80938077
-8.0970001 8.4309998 -1.5089999 -0.028924247 0.49534819 -0.63293666 0.80424827
-8.1350002 8.4189997 -1.512 -0.0052092662 0.49749789 -0.62817973 0.80133706
-8.1809998 8.4130001 -1.516 0.016205724 0.49972636 -0.61839807 0.79523909
-8.2440004 8.4239998 -1.523 0.024454677 0.50311488 -0.60173357 0.784733
-8.283 8.4099998 -1.526 0.029358506 0.50309867 -0.59982032 0.78342491
-8.3380003 8.4139996 -1.5319999 0.028524645 0.50208312 -0.6044367 0.78628546
-8.3699999 8.4189997 -1.536 0.029188441 0.50461489 -0.5914014 0.77797419
-8.4069996 8.4040003 -1.538 0.029013064 0.49564528 -0.62992531 0.80206722
-8.4680004 8.4110003 -1.545 0.025488943 0.50061995 -0.61047989 0.78990871
-8.5179996 8.408 -1.55 0.022304691 0.49599928 -0.62906349 0.80139482
-8.5579996 8.3950005 -1.553 0.019492209 0.4921937 -0.64236605 0.80948669
-8.6120005 8.3940001 -1.558 0.0034264973 0.49493763 -0.63352615 0.80394673
-8.6809998 8.408 -1.567 -0.054366138 0.50784749 -0.54467839 0.7466855
-8.724 8.3970003 -1.571 -0.051095665 0.50438851 -0.57457113 0.76625746
-8.8280001 8.4169998 -1.584 -0.06131627 0.4984605 -0.60089046 0.78312957
-8.868 8.4020004 -1.586 -0.059885949 0.49249676 -0.62619019 0.79890776
-8.934 8.4119997 -1.594 -0.053110838 0.48474407 -0.65509951 0.81667191
-9.0550003 8.4709997 -1.613 -0.044263516 0.48900807 -0.64540666 0.81094879
-9.0760002 8.3850002 -1.607 -0.03304895 0.46483737 -0.70942461 0.84879285
-9.3789997 8.6370001 -1.664 -0.10893982 0.42067111 -0.23159653 0.49241143
-9.2600002 8.474 -1.635 0.058199592 0.4680922 -0.69836938 0.84274393
-9.316 8.4180002 -1.636 0.072619028 0.44081542 -0.74738443 0.87073261
-9.3439999 8.3900003 -1.636 0.070276424 0.42109928 -0.77894211 0.88826472
-9.3940001 8.382 -1.641 0.084657393 0.40408814 -0.79862964 0.89903468
-9.5690002 8.4829998 -1.67 0.012157587 0.48371527 -0.66550779 0.82281768
-9.5360003 8.4280005 -1.661 0.024725281 0.47132885 -0.69553733 0.84055603
-6.2249999 9.6120005 -1.557 0.499937 0.044997115 -0.46253425 0.68256843
-6.2309999 9.5559998 -1.55 0.49940309 0.056010853 -0.46502861 0.68468404
-6.2509999 9.5220003 -1.5470001 0.50022358 0.05537058 -0.48044449 0.69578475
-6.2129998 9.3979998 -1.528 0.48384348 0.039909344 -0.3682518 0.60934937
-6.2350001 9.3669996 -1.526 0.48362777 0.025723157 -0.36624068 0.6071983
-6.2329998 9.3009996 -1.518 0.47283143 -0.028580008 -0.33912528 0.58257389
-6.2199998 9.217 -1.506 0.46618938 -0.065703087 -0.33512217 0.5778895
-6.2680001 9.2580004 -1.515 0.4745473 -0.062247753 -0.35911006 0.59835607
-6.1360002 9.0010004 -1.471 0.44308302 -0.12468512 -0.31307703 0.55667418
-6.2420001 8.7080002 -1.444 0.25534675 -0.27042961 -0.17854029 0.41256607
-6.2800002 8.7030001 -1.447 0.28346214 -0.26780957 -0.20031998 0.43840715
-6.2810001 8.6459999 -1.4400001 0.22556338 -0.29041898 -0.17460528 0.40707374
-6.309 8.6280003 -1.4400001 0.21254089 -0.30070677 -0.17566213 0.40798944
-6.3340001 8.6049995 -1.439 0.1908997 -0.31443322 -0.17591467 0.40774614
-6.362 8.5860004 -1.4400001 0.18163843 -0.31999996 -0.17626598 0.40799779
-6.3730001 8.573 -1.439 0.174623 -0.32177046 -0.17423204 0.40544569
-6.402 8.5559998 -1.4400001 0.14407274 -0.33448684 -0.17282268 0.40312043
-6.4349999 8.5439997 -1.441 0.11210176 -0.34815791 -0.17536262 0.40562642
-6.48 8.5480003 -1.446 0.1151251 -0.35768595 -0.18744248 0.41991395
-6.6009998 8.5389996 -1.456 0.20890673 -0.38589963 -0.28579727 0.52367985
-6.7410002 8.6929998 -1.488 -0.19953175 0.42584431 -0.70471472 0.84721845
-6.7329998 8.6269999 -1.479 -0.17745575 0.43238625 -0.71114433 0.85098451
-6.75 8.592 -1.476 -0.16614331 0.43644559 -0.71199673 0.85148561
-6.7940001 8.592 -1.4809999 -0.15542014 0.44098642 -0.7111423 0.85108626
-6.8080001 8.5550003 -1.477 -0.14392565 0.44829142 -0.70407915 0.84699893
-6.8839998 8.5959997 -1.49 -0.12372383 0.45558637 -0.70235294 0.84626603
-7.066 8.7670002 -1.527 -0.096702494 0.50429475 -0.55225074 0.75408584
-7.092 8.743 -1.527 -0.078890458 0.50764203 -0.55032676 0.75285035
-7.0999999 8.724 -1.526 -0.059346374 0.50849456 -0.56608629 0.76324463
-7.1009998 8.6700001 -1.5190001 -0.02696738 0.50360113 -0.60861564 0.79041404
-7.098 8.6110001 -1.512 -0.043351624 0.49109817 -0.64948887 0.81540942
-7.171 8.4799995 -1.5039999 -0.036229677 0.47810513 -0.68548852 0.83653551
-7.1989999 8.4849997 -1.507 -0.028218353 0.48134691 -0.67872763 0.8325637
-7.237 8.4759998 -1.51 -0.0058405199 0.48631513 -0.66746277 0.82585901
-7.276 8.4680004 -1.513 0.0057276124 0.49186772 -0.65075928 0.81575382
-7.323 8.4689999 -1.518 0.0127586 0.49842939 -0.62761444 0.80155754
-7.3590002 8.4569998 -1.52 0.0095676426 0.50082386 -0.61772293 0.79529727
-7.4060001 8.4580002 -1.525 -0.02615758 0.50958931 -0.56695527 0.76276058
-7.447 8.4510002 -1.528 -0.028460907 0.5079298 -0.57658148 0.76892716
-7.4920001 8.448 -1.5319999 -0.035775937 0.50693107 -0.57918775 0.77053064
-7.5289998 8.4630003 -1.538 -0.041709129 0.50618523 -0.58102769 0.77172297
-7.5799999 8.467 -1.544 -0.05184333 0.50409842 -0.58734006 0.77573919
-7.619 8.4560003 -1.546 -0.05516991 0.502518 -0.59368587 0.7797634
-7.6609998 8.4499998 -1.55 -0.060843125 0.49998155 -0.60244238 0.78525168
-7.7080002 8.448 -1.554 -0.065566488 0.49965367 -0.60092431 0.78425938
-7.7360001 8.4250002 -1.5549999 -0.071071528 0.49647185 -0.61085284 0.79036486
-7.8010001 8.4429998 -1.564 -0.077636495 0.49492672 -0.61342603 0.79200464
-7.8400002 8.4580002 -1.569 -0.075008921 0.49459288 -0.6168043 0.7941637
-8.8430004 8.415 -1.673 -0.076516949 0.48979068 -0.62751472 0.7997027
-8.9940004 8.4790001 -1.696 -0.069805197 0.48856714 -0.63650084 0.80542159
-9.0880003 8.5150003 -1.71 -0.028501099 0.49566799 -0.62711293 0.79985601
-9.1149998 8.4860001 -1.71 -0.010081188 0.48580161 -0.66164744 0.8209033
-9.1210003 8.4390001 -1.706 -0.022383578 0.47359627 -0.69163162 0.83853966
-9.1199999 8.3850002 -1.7 -0.010795556 0.45187813 -0.73743445 0.86493927
-9.257 8.4040003 -1.7180001 0.061495602 0.41976589 -0.78314269 0.89067256
-9.2910004 8.408 -1.722 0.061520282 0.41751811 -0.78626788 0.89236945
-9.3479996 8.4069996 -1.729 0.081271976 0.4017829 -0.80272698 0.90133524
-9.3590002 8.3629999 -1.725 0.074305534 0.385975 -0.82332981 0.91234314
-9.4390001 8.382 -1.7359999 0.087689489 0.37330073 -0.83427978 0.91818607
-9.559 8.4350004 -1.756 0.10444484 0.35208094 -0.85151136 0.9273302
-6.303 9.8500004 -1.732 -0.24255952 0.31833547 -0.17852527 0.4382281
-6.3639998 9.9099998 -1.745 -0.23213604 0.3198781 -0.1721943 0.43111485
-6.2519999 9.6700001 -1.7029999 -0.39052394 0.22496323 -0.2650857 0.522865
-6.2449999 9.5939999 -1.693 0.47280192 -0.080785684 -0.63241053 0.79373235
-6.2059999 9.184 -1.635 0.45536798 -0.091958173 -0.32112783 0.56474721
-6.2069998 9.1230001 -1.627 0.44930434 -0.11547276 -0.32183406 0.56461096
-6.2090001 9.0649996 -1.619 0.4403263 -0.14451107 -0.3235603 0.56520969
-6.2179999 9.0179996 -1.614 0.43618149 -0.16139652 -0.32963529 0.57005489
-6.2919998 8.6239996 -1.5700001 0.20518818 -0.27654815 -0.14924282 0.37530586
-6.3140001 8.5979996 -1.569 0.16146572 -0.29841316 -0.14550766 0.36918026
-6.3210001 8.5780001 -1.567 0.16349366 -0.29635525 -0.14450684 0.36802015
-6.3460002 8.5570002 -1.566 0.13202533 -0.31432357 -0.14774835 0.37156367
-6.3850002 8.5530005 -1.5700001 0.12078454 -0.3154301 -0.14479163 0.36749104
-6.4060001 8.5249996 -1.568 0.10789687 -0.31803325 -0.14301601 0.36502117
-6.5609999 8.5609999 -1.587 0.075413562 -0.34486505 -0.16153306 0.3882165
-6.5710001 8.5459995 -1.587 0.056777313 -0.34597629 -0.15909007 0.38501027
-6.5939999 8.5209999 -1.586 0.041258369 -0.34768385 -0.1585905 0.38436604
-6.6789999 8.5190001 -1.594 0.089034341 -0.37103528 -0.19500473 0.42851037
-6.7589998 8.5649996 -1.607 -0.16480255 0.44310445 -0.69898033 0.84384531
-6.9419999 8.7399998 -1.647 -0.1310603 0.48536795 -0.6126129 0.79249823
-6.9829998 8.7349997 -1.651 -0.086662874 0.49899811 -0.59763098 0.78337246
-6.8590002 8.5249996 -1.612 -0.11896266 0.4570075 -0.70138526 0.84554672
-6.8569999 8.4960003 -1.609 -0.11417355 0.4555026 -0.70711577 0.84884095
-6.9130001 8.5100002 -1.6160001 -0.10514155 0.45922688 -0.70421165 0.84726506
-6.9629998 8.5170002 -1.622 -0.088938117 0.46712545 -0.69463742 0.84180599
-7.1570001 8.6969995 -1.663 -0.018745821 0.51573449 -0.52012336 0.73270851
-7.0380001 8.4989996 -1.627 -0.064005569 0.47181439 -0.69345415 0.84118021
-7.1500001 8.5780001 -1.648 0.011632844 0.50152075 -0.61869752 0.79652059
-7.1589999 8.5340004 -1.6440001 0.017036565 0.48962831 -0.65846413 0.82073206
-7.145 8.4919996 -1.637 0.012417691 0.48152035 -0.6805805 0.83379006
-8.4169998 8.4060001 -1.7640001 0.0012207474 0.47776103 -0.68532383 0.8354196
-8.4569998 8.4189997 -1.77 -0.0044168956 0.47381809 -0.694767 0.84096628
-8.533 8.441 -1.781 -0.018298443 0.44479761 -0.75188196 0.87378842
-8.5799999 8.4350004 -1.785 -0.024966436 0.43342775 -0.76960981 0.88361883
-8.6129999 8.4130001 -1.7869999 -0.023209993 0.4274672 -0.77840626 0.88835984
-8.6660004 8.4119997 -1.793 -0.029584654 0.43729737 -0.76231503 0.87933409
-8.717 8.408 -1.798 -0.042593904 0.44741401 -0.74301803 0.86837167
-8.776 8.4119997 -1.8049999 -0.10166261 0.48603538 -0.62328851 0.79690289
-8.8179998 8.4259996 -1.812 -0.11719012 0.48232248 -0.6236034 0.7970255
-8.8809996 8.4329996 -1.8200001 -0.11772274 0.47332668 -0.65299058 0.81504202
-9.0270004 8.4639997 -1.84 -0.075766511 0.4778071 -0.66605949 0.82321048
-9.0489998 8.4309998 -1.839 -0.058320463 0.46298471 -0.70798153 0.84793514
-9.1000004 8.4259996 -1.844 -0.02099089 0.44983891 -0.74073744 0.86688387
-9.1719999 8.4379997 -1.854 0.021406466 0.41784039 -0.79165888 0.89541757
-9.1969995 8.408 -1.854 0.031027809 0.40670106 -0.80546439 0.90285182
-9.2270002 8.4099998 -1.857 0.03493664 0.39768031 -0.81637114 0.90875304
-9.283 8.4069996 -1.864 0.068608016 0.36563164 -0.84688342 0.92498922
-9.302 8.3710003 -1.862 0.066405714 0.36544088 -0.84723032 0.92507082
-9.3610001 8.3710003 -1.869 0.071949653 0.35424542 -0.85714591 0.93025029
-9.3059998 8.2690001 -1.852 0.061504144 0.33300382 -0.87758034 0.94064951
-9.4440002 8.3389997 -1.876 0.076043107 0.33040929 -0.87743044 0.94065779
-6.5250001 9.9250002 -1.878 -0.24124652 0.2800265 -0.14633015 0.39752638
-6.2579999 9.4840002 -1.791 0.47271132 0.13430393 -0.37587368 0.61868775
-6.2420001 9.3950005 -1.777 0.476466 0.10805485 -0.36933327 0.61245632
-6.2319999 9.3170004 -1.765 0.48168489 0.02251498 -0.35934824 0.60138041
-6.2360001 9.2589998 -1.757 0.47591409 -0.022491826 -0.34662503 0.58919352
-6.2220001 9.1759996 -1.745 0.45107117 -0.10199588 -0.31686392 0.56059891
-6.2350001 9.132 -1.74 0.44789779 -0.12844948 -0.32881913 0.57029265
-6.2690001 9.1199999 -1.7410001 0.44876641 -0.13903117 -0.34101367 0.58052671
-6.3439999 9.1999998 -1.7589999 0.49582914 -0.057266276 -0.49133018 0.70037937
-6.3340001 9.1230001 -1.748 0.47028956 -0.12811773 -0.40567985 0.6341629
-6.2199998 8.8389997 -1.698 0.29630795 -0.17117944 -0.14241481 0.37065181
-6.25 8.823 -1.698 0.30565819 -0.17753612 -0.15381297 0.38549247
-6.2399998 8.75 -1.687 0.26776394 -0.18854176 -0.12956762 0.35218361
-6.2579999 8.7159996 -1.684 0.23390038 -0.21428241 -0.12196267 0.33985472
-6.4910002 8.5780001 -1.689 0.083514757 -0.30364457 -0.12406197 0.33847615
-6.5240002 8.566 -1.691 0.061871167 -0.31237581 -0.12747431 0.34301078
-6.527 8.5139999 -1.684 0.025100393 -0.31377631 -0.12436563 0.33845592
-6.5669999 8.5100002 -1.688 0.014366328 -0.31713557 -0.12680137 0.34184784
-6.6500001 8.5629997 -1.7029999 0.039142281 -0.3390612 -0.14957502 0.37264904
-6.6830001 8.5500002 -1.705 0.026344756 -0.33616239 -0.14543995 0.36722198
-6.711 8.5299997 -1.705 0.028786968 -0.34595644 -0.15553412 0.38040164
-6.711 8.5030003 -1.702 0.0082487129 0.36677399 -0.85559058 0.93092775
-6.7690001 8.5200005 -1.71 -0.078006417 0.42193425 -0.78000963 0.89024073
-6.8099999 8.5179996 -1.714 -0.1281184 0.45105451 -0.70833665 0.84947354
-6.8709998 8.5389996 -1.723 -0.10573827 0.45890522 -0.70477498 0.84763336
-6.9899998 8.6309996 -1.748 -0.031875715 0.49210736 -0.64932591 0.81535876
-6.9860001 8.5710001 -1.74 -0.054390784 0.47705683 -0.68471396 0.83628631
-6.9759998 8.5050001 -1.73 -0.074511796 0.46481323 -0.70569694 0.84829921
-7.152 8.6639996 -1.7690001 0.0037628389 0.51122189 -0.57132113 0.76666152
-7.039 8.4989996 -1.7359999 -0.031094758 0.46720642 -0.71172023 0.85193568
-7.1350002 8.5600004 -1.7539999 0.031493049 0.47433114 -0.69700491 0.84368104
-7.1430001 8.5150003 -1.749 0.039076719 0.4635025 -0.71874464 0.85612816
-7.789 8.4449997 -1.812 -0.092989139 0.49269146 -0.61068118 0.79014134
-7.8439999 8.4510002 -1.819 -0.099249765 0.49038693 -0.61512655 0.79291266
-7.9219999 8.4809999 -1.832 -0.029002845 0.49939784 -0.38140798 0.62905598
-8.0089998 8.5209999 -1.847 0.0005116692 0.33061072 -0.11220011 0.34913117
-8.04 8.5270004 -1.851 0.028741173 0.34752315 -0.12756413 0.37130985
-8.1029997 8.5410004 -1.86 0.038698651 0.30168501 -0.091961265 0.3177551
-8.1379995 8.5240002 -1.862 0.052820601 0.29957083 -0.092082083 0.31782356
-8.2069998 8.5419998 -1.873 0.054899726 0.28975469 -0.085589141 0.3070786
-8.2349997 8.5179996 -1.873 0.061982933 0.26645362 -0.07205084 0.28289706
-8.9759998 8.5579996 -1.966 -0.10427886 0.49839464 -0.55899799 0.75614154
-8.9560003 8.4849997 -1.955 -0.12855518 0.46705148 -0.66295874 0.82108331
-8.9700003 8.4440002 -1.952 -0.12428289 0.44780007 -0.7109921 0.84940034
-9.0139999 8.4320002 -1.956 -0.093041196 0.43216994 -0.7541917 0.87420398
-9.0410004 8.4320002 -1.96 -0.088923298 0.4206306 -0.7736637 0.88509488
-9.1359997 8.4659996 -1.975 0.015718285 0.38979137 -0.82755011 0.91488993
-9.1239996 8.4029999 -1.967 -0.020368995 0.40713209 -0.8053636 0.90265274
-9.1000004 8.3269997 -1.955 0.037239853 -0.35821861 -0.16495952 0.39613006
-9.243 8.4049997 -1.982 0.044513993 0.34597126 -0.8693617 0.93673229
-9.2810001 8.3870001 -1.984 -0.04665428 -0.30558601 -0.11645567 0.33033523
-9.3050003 8.3559999 -1.984 -0.048382536 -0.30775523 -0.11824018 0.33321899
-9.3509998 8.3439999 -1.988 -0.052367363 -0.31049773 -0.12093452 0.33730748
-6.625 9.974 -2 -0.097958334 0.17413315 -0.033487618 0.20258234
-6.631 9.915 -1.992 -0.11800162 0.19273089 -0.044850379 0.23039342
-6.6690001 9.9040003 -1.994 -0.12474464 0.18875375 -0.045239359 0.23072886
-6.684 9.7939997 -1.979 -0.17090499 0.20032443 -0.065470427 0.27133885
-6.5079999 8.6359997 -1.794 0.10816452 -0.28574786 -0.11573607 0.32672045
-6.5289998 8.6079998 -1.7920001 0.074844398 -0.29213795 -0.1129252 0.32202232
-6.4959998 8.5360003 -1.778 0.054055985 -0.29211238 -0.10926694 0.31652954
-6.5219998 8.5139999 -1.778 0.032207597 -0.29429007 -0.10857895 0.31533056
-6.559 8.5080004 -1.781 0.011437604 -0.30092812 -0.11281723 0.32158402
-6.6539998 8.5740004 -1.801 0.020341078 -0.30474034 -0.11652899 0.32689363
-6.6760001 8.5469999 -1.799 0.0023149422 -0.31670213 -0.12629417 0.34096307
-6.6830001 8.5010004 -1.794 -0.019397443 -0.30891809 -0.11992618 0.33194721
-6.711 8.4820004 -1.794 -0.020981826 -0.31221288 -0.12280726 0.33615285
-6.783 8.5179996 -1.807 -0.002111539 -0.33308733 -0.141451 0.361884
-6.809 8.5220003 -1.811 -0.023058692 0.40463987 -0.8129071 0.90834087
-6.895 8.5740004 -1.827 -0.094447337 0.45629781 -0.71601236 0.85428435
-6.948 8.585 -1.835 -0.012005547 0.43932247 -0.76540387 0.88260496
-6.973 8.5059996 -1.827 -0.031931199 0.42501462 -0.78478098 0.89304996
-6.9050002 8.3699999 -1.801 -0.031690504 -0.30872884 -0.12009475 0.33277699
-7.0539999 8.4949999 -1.834 0.052255712 0.39138281 -0.8255564 0.91512543
-8.5979996 9.0889997 -2.095 0.0021380836 0.19907063 -0.033932418 0.2019532
-8.6129999 9.0769997 -2.095 0.0091261221 0.2093643 -0.038172096 0.21301128
-8.6359997 9.0439997 -2.0940001 0.0049157548 0.21622831 -0.041116476 0.2201577
-8.658 9.0100002 -2.092 -0.0046521574 0.24827987 -0.056498736 0.25466967
-8.6940002 8.9910002 -2.0940001 -0.0015445831 0.24522717 -0.05493927 0.25131071
-8.7189999 8.9589996 -2.0929999 0.0016140854 0.2512624 -0.058184087 0.25791624
-8.7270002 8.9119997 -2.0880001 0.004849798 0.25909582 -0.062590212 0.26659277
-8.7580004 8.8879995 -2.089 0.017544916 0.26933283 -0.068802774 0.27853513
-8.7849998 8.8590002 -2.089 0.026768968 0.28550211 -0.079312503 0.29752058
-8.8000002 8.8459997 -2.089 0.02850765 0.28913257 -0.08185184 0.30184442
-8.823 8.8140001 -2.0880001 0.032180242 0.30216768 -0.091148227 0.31725207
-8.8360004 8.7709999 -2.0840001 0.02793698 0.29589757 -0.086764216 0.30961892
-8.8660002 8.7460003 -2.085 0.032847423 0.29504848 -0.086727262 0.3092801
-8.8889999 8.7139997 -2.0840001 0.038638785 0.29100338 -0.084730387 0.30554077
-8.9180002 8.6879997 -2.0840001 0.049040511 0.2815679 -0.079818904 0.29674318
-8.941 8.6560001 -2.0829999 0.05071364 0.27677152 -0.077171445 0.29177007
-8.9499998 8.6370001 -2.082 0.032345224 0.2979275 -0.089420021 0.31273463
-8.967 8.6000004 -2.0799999 0.013914282 0.32450023 -0.10839057 0.34240696
-8.9969997 8.5740004 -2.0799999 -0.027506733 0.42483997 -0.21728876 0.47797492
-9.0299997 8.5509996 -2.082 -0.0076434631 0.36559346 -0.14535376 0.39350313
-9.0469999 8.5129995 -2.079 -0.069718525 0.4407666 -0.74821967 0.87118804
-9.0679998 8.4799995 -2.0780001 -0.050580792 0.41902906 -0.78614295 0.89228052
-9.0810003 8.4390001 -2.075 -0.053833354 0.40131107 -0.8088035 0.9044953
-9.0869999 8.4180002 -2.073 0.06334608 -0.36346546 -0.1753962 0.40851399
-9.1020002 8.3789997 -2.0699999 0.044002015 -0.34062824 -0.14751428 0.37379706
-9.1300001 8.3520002 -2.0710001 0.040882047 -0.34273171 -0.14903194 0.37596127
-9.1529999 8.3199997 -2.0699999 0.027617775 -0.3091765 -0.11676621 0.33164319
-9.1700001 8.2840004 -2.0680001 0.0059908982 -0.29494733 -0.10427225 0.31289378
-9.2049999 8.2629995 -2.0699999 -0.010199789 -0.28434256 -0.09625569 0.30036625
-9.224 8.2270002 -2.0680001 -0.026882138 -0.25870043 -0.079283416 0.27190885
-9.2460003 8.1949997 -2.0669999 -0.032036055 -0.24577668 -0.071449488 0.25794867
-9.25 8.1730003 -2.0650001 -0.031998537 -0.24599385 -0.071453393 0.25815201
-9.2819996 8.1490002 -2.0669999 -0.030975178 -0.22714934 -0.060479969 0.23709515
-9.302 8.1149998 -2.0650001 -0.040885977 -0.20914726 -0.051888913 0.2193324
-9.3240004 8.0830002 -2.0650001 -0.040460851 -0.19471855 -0.044929355 0.20388977
-6.5120001 8.6190004 -1.872 0.057030257 -0.25744283 -0.084917665 0.27702034
-6.5100002 8.5609999 -1.863 0.044744719 -0.26268014 -0.086749375 0.28022918
-6.5370002 8.5410004 -1.863 0.025370501 -0.26111364 -0.084061652 0.27548206
-6.5500002 8.5019999 -1.859 0.0076318635 -0.26788318 -0.087886661 0.28203493
-6.5689998 8.4169998 -1.848 -0.014885956 -0.27321231 -0.091667652 0.28856459
-6.7010002 8.5579996 -1.8839999 -0.024076546 -0.27069521 -0.090790302 0.28652826
-6.776 8.4890003 -1.883 -0.032285128 -0.26679325 -0.088481545 0.282931
-6.8200002 8.4890003 -1.888 -0.043957017 -0.26492727 -0.088356793 0.28271115
-6.8829999 8.5120001 -1.898 -0.020819807 -0.28567326 -0.10138685 0.30384532
-6.928 8.5129995 -1.904 -0.017535981 -0.28065681 -0.097461611 0.29761472
-6.954 8.5179996 -1.9069999 -0.033897974 -0.26639822 -0.088452429 0.28273824
-7.8600001 8.9510002 -2.0769999 -0.034064602 0.21126285 -0.04017216 0.21772963
-7.902 8.9420004 -2.0810001 -0.007883653 0.2258171 -0.045359492 0.23046258
-7.9330001 8.9200001 -2.0810001 0.0086680539 0.23692094 -0.050708771 0.24244183
-7.9419999 8.9020004 -2.0799999 0.0038225041 0.2332346 -0.048936188 0.23834375
-7.9749999 8.8830004 -2.0810001 0.0089901853 0.23363699 -0.049306691 0.23895234
-8.0039997 8.8590002 -2.082 0.017368868 0.23387696 -0.049738586 0.23973744
-8.0279999 8.8299999 -2.0810001 0.017903982 0.22852956 -0.047295451 0.23405805
-8.0530005 8.8009996 -2.0799999 0.024766883 0.22284049 -0.045049638 0.22869357
-8.0780001 8.7729998 -2.079 0.030910471 0.22676571 -0.047290057 0.23369743
-8.1000004 8.7419996 -2.0780001 0.026023133 0.21273924 -0.04084903 0.21818303
-8.1169996 8.7320004 -2.079 0.026132049 0.20938025 -0.039451301 0.21466108
-8.1619997 8.6709995 -2.076 0.024185302 0.19683339 -0.034401596 0.20127538
-6.3930001 9.4720001 -2.0880001 -0.17755193 0.1233187 -0.04430753 0.22067022
-6.4239998 9.4530001 -2.0880001 -0.23568653 0.10868825 -0.068580568 0.26844844
-6.427 9.4259996 -2.0840001 -0.21901126 0.092941806 -0.056955934 0.2446387
-6.4619999 9.4130001 -2.086 -0.25712457 0.095140673 -0.078534722 0.28518853
-6.4910002 9.3929996 -2.086 -0.26330695 0.097246379 -0.082801133 0.292649
-6.5110002 9.3579998 -2.0829999 -0.2446339 0.095515341 -0.071215779 0.27210405
-6.533 9.3280001 -2.0799999 -0.23035562 0.10159144 -0.064435065 0.25987768
-6.559 9.3030005 -2.079 -0.22216715 0.11230329 -0.062319487 0.25662032
-6.585 9.2770004 -2.0780001 -0.21879953 0.11382533 -0.060964793 0.25405934
-6.5890002 9.2519999 -2.075 -0.20152721 0.10930652 -0.051799923 0.2350412
-6.6209998 9.2349997 -2.075 -0.20656213 0.11159504 -0.054608703 0.24104664
-6.6409998 9.2030001 -2.073 -0.19949013 0.11549897 -0.052227259 0.23635569
-6.671 9.184 -2.073 -0.19069409 0.1166229 -0.048632681 0.22875811
-6.704 9.1669998 -2.0739999 -0.18279639 0.11997229 -0.046093971 0.22345586
-6.7210002 9.1300001 -2.0710001 -0.17822777 0.12215488 -0.044804543 0.22066808
