# .PCD v0.7 - Point Cloud Data file format
VERSION 0.7
FIELDS x y z normal_x normal_y normal_z curvature
SIZE 4 4 4 4 4 4 4
TYPE F F F F F F F
COUNT 1 1 1 1 1 1 1
WIDTH 651
HEIGHT 1
VIEWPOINT 0 0 0 1 0 0 0
POINTS 651
DATA ascii
-2.0209999 8.809 -0.68699998 0.00067902007 0.46661162 -0.71581185 0.8544668
-0.093999997 9.6920004 -0.81099999 0.28558904 -0.17725153 -0.13545781 0.3623921
-0.119 9.1739998 -0.75700003 -0.099004462 0.45460483 -0.72050309 0.85766667
-0.147 9.0489998 -0.74400002 -0.088783734 0.46313158 -0.70636559 0.84930897
-0.285 8.9259996 -0.73199999 -0.068849176 0.47030884 -0.69761276 0.84415293
-0.29699999 8.8660002 -0.72600001 -0.068528518 0.47078544 -0.6962381 0.84325713
-0.324 8.8409996 -0.72299999 -0.067098558 0.47088143 -0.69629776 0.84324503
-0.352 8.8400002 -0.72299999 -0.062700726 0.47018027 -0.69940114 0.84508157
-0.38 8.8369999 -0.72299999 -0.062167782 0.47067797 -0.69837099 0.84446704
-0.40799999 8.8500004 -0.72399998 -0.057699718 0.47120771 -0.69867241 0.84469467
-0.43599999 8.8479996 -0.72399998 -0.056843761 0.47109568 -0.69914609 0.84496605
-0.463 8.8330002 -0.72299999 -0.056740154 0.47069174 -0.69990385 0.84536117
-0.47600001 8.8079996 -0.72100002 -0.057640254 0.47069821 -0.69939071 0.84500092
-0.50400001 8.8170004 -0.722 -0.057283867 0.47052032 -0.69992125 0.84531683
-0.53100002 8.8050003 -0.72100002 -0.056942809 0.47021446 -0.70058393 0.84567249
-0.56 8.8190002 -0.722 -0.054242522 0.47055706 -0.70065534 0.84574473
-0.588 8.8269997 -0.72299999 -0.050728124 0.47200105 -0.69837278 0.84444237
-0.616 8.8339996 -0.72399998 -0.048905771 0.47205111 -0.69876158 0.84468442
-0.64200002 8.7980003 -0.72100002 -0.046544891 0.47197273 -0.69916087 0.84483767
-0.65700001 8.823 -0.72299999 -0.045331314 0.47182521 -0.69999325 0.84537834
-0.89200002 8.7919998 -0.722 -0.030704001 0.4743576 -0.69661742 0.84334671
-1.42 8.7580004 -0.72600001 -0.025374614 0.47458205 -0.69606209 0.8428371
-1.438 8.7779999 -0.72799999 -0.024745494 0.47389722 -0.69791257 0.84396261
-1.462 8.7559996 -0.72600001 -0.023022342 0.47254738 -0.70101953 0.84573007
-1.492 8.7670002 -0.72799999 -0.021864612 0.47140893 -0.70381176 0.84738153
-1.525 8.7910004 -0.73100001 -0.022024451 0.47101802 -0.70480418 0.8479929
-2.0320001 8.8109999 -0.74400002 -0.00088535249 0.47485605 -0.69764698 0.84391963
-2.0580001 8.7950001 -0.74299997 0.0010258872 0.47497794 -0.69723821 0.84365052
-2.0780001 8.7589998 -0.73900002 0.0023475708 0.47562963 -0.69538438 0.84248942
-2.109 8.7639999 -0.741 0.004694473 0.47692111 -0.69235671 0.84073395
-2.141 8.7770004 -0.74299997 0.01174971 0.47718546 -0.69166273 0.84038162
-2.217 8.8459997 -0.75199997 0.020278363 0.47625157 -0.69398868 0.84193057
-0.050000001 9.3979998 -0.84299999 -0.12930313 0.44277602 -0.72856617 0.86230999
-0.64399999 8.8439999 -0.78399998 -0.047255412 0.47804037 -0.68485606 0.83653063
-2.1700001 8.7779999 -0.80299997 0.01361338 0.4826732 -0.6777249 0.83214772
0.0020000001 9.1949997 -0.87699997 -0.1136655 0.46148512 -0.69854814 0.84490108
-0.027000001 9.052 -0.86000001 -0.096956946 0.46963188 -0.68771809 0.83839786
-0.11 8.8789997 -0.83999997 -0.081230231 0.47698045 -0.67580169 0.83115381
-0.59299999 8.7860003 -0.83099997 -0.054689508 0.48306569 -0.66886997 0.82687998
-0.85600001 8.7720003 -0.83200002 -0.037942436 0.48031414 -0.68040645 0.83372313
-1.401 8.7659998 -0.83999997 -0.027747013 0.47970667 -0.68320656 0.83526021
-1.54 8.7530003 -0.84100002 -0.024991443 0.47785947 -0.68809325 0.83812088
-2.221 8.7139997 -0.85299999 0.018840725 0.48633656 -0.66693908 0.8256427
-2.247 8.7030001 -0.85299999 0.020737499 0.488397 -0.66074359 0.82191473
0.039999999 9.2580004 -0.93699998 -0.12219962 0.46347314 -0.68909508 0.83939987
0.011 9.0649996 -0.91399997 -0.10375299 0.4710919 -0.68044102 0.83408165
-0.059 8.8940001 -0.89300001 -0.088006154 0.4791365 -0.66666234 0.82568491
-0.14300001 8.9169998 -0.89600003 -0.078627378 0.48112041 -0.66620541 0.82552332
-0.377 8.8190002 -0.884 -0.062189862 0.48371422 -0.6650902 0.82473755
-0.417 8.7930002 -0.88200003 -0.060833275 0.48320973 -0.66667521 0.82561988
-0.44499999 8.8000002 -0.88200003 -0.059874654 0.4831 -0.66736495 0.82604271
-0.47299999 8.8000002 -0.88300002 -0.060644835 0.48332435 -0.66639024 0.82544297
-0.50199997 8.8249998 -0.88599998 -0.059195083 0.48268634 -0.66890585 0.8269977
-0.528 8.7849998 -0.88099998 -0.05735239 0.48426509 -0.66468096 0.82438022
-0.58399999 8.7959995 -0.88300002 -0.054630179 0.48376307 -0.66704237 0.82580668
-0.86000001 8.7810001 -0.884 -0.040281173 0.48403254 -0.66996235 0.82750201
-1.404 8.7609997 -0.88999999 -0.029313959 0.48132589 -0.6787315 0.83259255
-1.431 8.7489996 -0.889 -0.029020965 0.480995 -0.67947388 0.83299649
-1.5319999 8.7600002 -0.89200002 -0.02810261 0.47981718 -0.68269622 0.8349182
-2.283 8.7089996 -0.90600002 0.023558898 0.49372202 -0.6438731 0.81171983
-2.3740001 8.9399996 -0.93599999 0.033449404 0.48973572 -0.65747094 0.82050472
0.093999997 9.1350002 -0.96899998 -0.14598085 0.46809015 -0.65715718 0.8199234
0.064000003 9 -0.95200002 -0.13712871 0.47508386 -0.64266139 0.81087768
0.035 8.8809996 -0.93699998 -0.10762876 0.47990456 -0.65181005 0.8165468
0.0070000002 8.8380003 -0.93099999 -0.10211793 0.48076209 -0.6526925 0.81704819
-0.021 8.8059998 -0.92699999 -0.096632443 0.48343429 -0.64792013 0.81415421
-0.104 8.8129997 -0.92799997 -0.082208879 0.4837136 -0.65591747 0.81912446
-0.117 8.7749996 -0.92299998 -0.082344808 0.48401111 -0.65459752 0.81825751
-0.145 8.7670002 -0.92199999 -0.079760469 0.48419112 -0.65538001 0.81873423
-0.17200001 8.7659998 -0.92199999 -0.076341644 0.48503184 -0.65452671 0.81822318
-0.2 8.7679996 -0.92299998 -0.07381928 0.48544407 -0.65455806 0.81826127
-0.227 8.7279997 -0.917 -0.073587604 0.48588508 -0.65295476 0.81722051
-0.255 8.7510004 -0.92000002 -0.068361543 0.48583812 -0.65575647 0.81898016
-0.28099999 8.7220001 -0.917 -0.068334505 0.48598996 -0.65494013 0.81841457
-0.30899999 8.7410002 -0.91900003 -0.066844568 0.48598853 -0.65573841 0.81892973
-0.32300001 8.7229996 -0.917 -0.06398356 0.48765835 -0.65169334 0.81646109
-0.34999999 8.7290001 -0.91799998 -0.063210368 0.48746079 -0.65264386 0.81704199
-0.37799999 8.7360001 -0.91900003 -0.062276479 0.48722327 -0.65379673 0.81774998
-0.405 8.7209997 -0.917 -0.060953245 0.48704967 -0.65456975 0.81816512
-0.43200001 8.7200003 -0.917 -0.060262494 0.48681858 -0.65550733 0.8187269
-0.45899999 8.7159996 -0.917 -0.060574278 0.48649403 -0.65615767 0.81907791
-0.48800001 8.7270002 -0.91900003 -0.059889901 0.48635256 -0.65693438 0.81956601
-0.50099999 8.7299995 -0.91900003 -0.058881655 0.48605666 -0.65824014 0.82036465
-0.52899998 8.7220001 -0.91799998 -0.05857506 0.48574853 -0.65910447 0.82085407
-0.55699998 8.7419996 -0.921 -0.05647314 0.4861154 -0.65899765 0.82083815
-0.84500003 8.7209997 -0.92199999 -0.041512553 0.48569068 -0.66453743 0.82415336
-1.408 8.6700001 -0.92400002 -0.029362651 0.48245856 -0.67498535 0.83020097
-1.434 8.6560001 -0.92299998 -0.027990056 0.48226395 -0.67558271 0.83052635
-1.449 8.6619997 -0.92400002 -0.028462717 0.48201668 -0.67619348 0.83089578
-1.478 8.6709995 -0.926 -0.028321389 0.48260427 -0.67468303 0.83000374
-1.507 8.6759996 -0.92699999 -0.027712187 0.48151746 -0.67770141 0.83180898
-1.534 8.665 -0.926 -0.027377205 0.48262072 -0.67472339 0.83001441
-2.2179999 8.4420004 -0.917 0.013640411 0.49587941 -0.63560498 0.80627298
-2.3369999 8.677 -0.94999999 0.0271951 0.49353218 -0.64385819 0.81170619
-2.3529999 8.6280003 -0.94499999 0.025393903 0.49449784 -0.64049125 0.809569
-2.457 8.7390003 -0.96200001 0.031946987 0.49168962 -0.64932925 0.81511211
-2.517 8.8479996 -0.977 0.035488147 0.49143648 -0.65058744 0.81610858
-2.5739999 8.9449997 -0.991 0.04086531 0.49134883 -0.65085232 0.81651849
0.07 9.2810001 -1.053 -0.30508867 0.4036296 -0.573865 0.76506013
0.039999999 9.0509996 -1.022 -0.14236462 0.4828043 -0.60910225 0.79017287
0.012 8.9300003 -1.005 -0.12298627 0.48689088 -0.61388367 0.7931214
-0.016000001 8.8870001 -0.99900001 -0.1158588 0.48753834 -0.61834127 0.7959038
-0.044 8.875 -0.99800003 -0.11058237 0.48733556 -0.62403727 0.79946667
-0.071000002 8.8450003 -0.99400002 -0.10689437 0.48808429 -0.62418681 0.79953849
-0.085000001 8.8520002 -0.995 -0.10481767 0.48817891 -0.62573367 0.80052984
-0.113 8.8459997 -0.99400002 -0.099799961 0.48917186 -0.62617528 0.80083996
-0.14 8.8260002 -0.991 -0.094147965 0.48976347 -0.62815309 0.80206507
-0.168 8.8290005 -0.99199998 -0.09086398 0.4902826 -0.62872577 0.80245209
-0.19599999 8.8129997 -0.99000001 -0.087450981 0.49067524 -0.6294899 0.80291182
-0.223 8.8039999 -0.98900002 -0.084674925 0.49045041 -0.63205749 0.80449247
-0.25099999 8.8000002 -0.98799998 -0.082593746 0.49031815 -0.63381463 0.80557722
-0.26499999 8.8170004 -0.991 -0.080112644 0.48997548 -0.63672566 0.80741167
-0.292 8.7980003 -0.98799998 -0.07793697 0.48998022 -0.63780642 0.80805433
-0.31900001 8.7860003 -0.98699999 -0.076053239 0.48969436 -0.63967448 0.8091774
-0.347 8.7889996 -0.98699999 -0.073787957 0.49021742 -0.63912308 0.80884862
-0.375 8.7889996 -0.98699999 -0.071200445 0.49001029 -0.64118314 0.81012064
-0.40099999 8.7679996 -0.98500001 -0.06758035 0.48928821 -0.64507675 0.81246173
-0.42899999 8.7749996 -0.986 -0.065879941 0.48893446 -0.64704144 0.81367052
-0.456 8.7639999 -0.98500001 -0.062471431 0.48973259 -0.64584363 0.81292969
-0.47 8.7670002 -0.98500001 -0.061202925 0.48928598 -0.64785671 0.81416512
-0.498 8.7650003 -0.98500001 -0.060970463 0.48912621 -0.64832067 0.814421
-0.52499998 8.7580004 -0.98400003 -0.059135202 0.48836619 -0.65131295 0.81621504
-0.55400002 8.7720003 -0.986 -0.057293098 0.48925737 -0.6493476 0.81505066
-0.58099997 8.7679996 -0.986 -0.056075588 0.49035594 -0.64622051 0.81313854
-0.60699999 8.7449999 -0.98299998 -0.055860203 0.48898554 -0.6503343 0.81557459
-0.63700002 8.7700005 -0.98699999 -0.054709964 0.49065807 -0.64561468 0.81274647
-0.65100002 8.783 -0.98900002 -0.053516455 0.49123788 -0.64435387 0.81201637
-0.67799997 8.7629995 -0.986 -0.051953353 0.49126041 -0.64464456 0.81215918
-0.70599997 8.7729998 -0.98799998 -0.05054545 0.49137154 -0.64486086 0.81230927
-0.73299998 8.7589998 -0.986 -0.04860932 0.49156678 -0.64472973 0.81220514
-0.76200002 8.7740002 -0.98900002 -0.046714302 0.49240759 -0.64269716 0.81099141
-0.78899997 8.7659998 -0.98799998 -0.045267109 0.49308348 -0.64081544 0.80983013
-0.81599998 8.7589998 -0.98699999 -0.044587657 0.49364468 -0.63909876 0.80877709
-0.83099997 8.7740002 -0.99000001 -0.043758597 0.49443123 -0.63676667 0.80737156
-0.85900003 8.7770004 -0.99000001 -0.042215865 0.49480149 -0.63600206 0.80691344
-0.88599998 8.7650003 -0.98900002 -0.041721236 0.4945778 -0.6368171 0.80739325
-0.912 8.7519999 -0.98799998 -0.039532438 0.49533692 -0.6346935 0.80607527
-0.94 8.7510004 -0.98799998 -0.038081098 0.49607506 -0.63239932 0.80465496
-0.96700001 8.7419996 -0.98699999 -0.035891797 0.49563181 -0.63458085 0.80599749
-0.995 8.7410002 -0.98699999 -0.033985324 0.49617082 -0.63313335 0.80510765
-1.02 8.724 -0.986 -0.032798752 0.49554265 -0.63551849 0.80654943
-1.0369999 8.75 -0.98900002 -0.031679545 0.49728444 -0.62972426 0.80302435
-1.0650001 8.7510004 -0.99000001 -0.031686697 0.49761325 -0.62845492 0.80223352
-1.091 8.7329998 -0.98799998 -0.029467272 0.49693516 -0.63138455 0.80402696
-1.122 8.7539997 -0.991 -0.029931229 0.49823937 -0.62650537 0.80102891
-1.147 8.7320004 -0.98900002 -0.029974764 0.49654567 -0.63252437 0.80470067
-1.179 8.7639999 -0.99400002 -0.030799832 0.4985702 -0.62503743 0.80012035
-1.455 8.7320004 -0.995 -0.032028951 0.49476242 -0.6376431 0.80771554
-1.482 8.7220001 -0.99400002 -0.031245049 0.49386579 -0.64075381 0.80959564
-1.5089999 8.7130003 -0.99400002 -0.030574311 0.49400604 -0.6403439 0.80933124
-1.539 8.7279997 -0.99599999 -0.030731101 0.49473557 -0.63791847 0.8078661
-1.5650001 8.7110004 -0.995 -0.03022654 0.49290574 -0.64403182 0.81157047
-1.5930001 8.7139997 -0.99599999 -0.028888715 0.49459997 -0.63866174 0.80830228
-2.2739999 8.4630003 -0.98299998 0.01776335 0.49446177 -0.64031744 0.80920607
-2.309 8.4870005 -0.98699999 0.022621213 0.49424425 -0.64067364 0.80947626
-2.398 8.651 -1.012 0.025015073 0.50186658 -0.61260802 0.79232848
-2.441 8.6990004 -1.02 0.023758549 0.50525737 -0.59764123 0.78295881
-2.473 8.7069998 -1.022 0.024488248 0.50546622 -0.59630245 0.7820949
-2.6559999 8.8699999 -1.05 0.030092236 0.50468457 -0.60111165 0.78545988
-2.733 9.0229998 -1.072 0.019465152 0.51551801 -0.52438062 0.73560369
-2.79 9.1070004 -1.086 0.015461821 0.51651055 -0.50773138 0.72444004
-2.783 8.9849997 -1.0700001 0.022507582 0.514687 -0.53329229 0.74149168
-2.7780001 8.8699999 -1.0549999 0.034819905 0.50707233 -0.58706552 0.77651829
-2.816 8.8909998 -1.059 0.034671441 0.50853503 -0.5788511 0.77128369
-2.848 8.8979998 -1.061 0.035616826 0.50810593 -0.58129263 0.77287865
-2.878 8.9420004 -1.068 0.034511715 0.50976139 -0.57210135 0.76703829
-2.9189999 8.9729996 -1.074 0.035429209 0.50963587 -0.5735032 0.76804286
-2.964 9.0120001 -1.08 0.038784634 0.50964642 -0.57281953 0.76770169
-3.0190001 9.0839996 -1.092 0.036069788 0.51121336 -0.5649156 0.76273835
-3.076 9.1569996 -1.104 0.035774652 0.51240295 -0.55788648 0.75833631
-3.1340001 9.2329998 -1.1160001 0.021363916 0.51682651 -0.4921183 0.7139653
0.028999999 8.9870005 -1.074 -0.18277964 0.47103503 -0.59452993 0.78022319
0.001 8.9969997 -1.075 -0.18013781 0.47227576 -0.59383965 0.77983302
-0.027000001 8.8780003 -1.059 -0.10512816 0.48897585 -0.62278509 0.79875565
-0.055 8.8149996 -1.05 -0.1002423 0.48991904 -0.62264478 0.79859608
-0.082000002 8.8109999 -1.049 -0.096118294 0.49083027 -0.62247586 0.79851693
-0.11 8.7989998 -1.0470001 -0.09525872 0.49128416 -0.62121058 0.79770732
-1.807 8.658 -1.054 -0.015409231 0.50372559 -0.60425866 0.78683257
-1.862 8.651 -1.054 -0.010858917 0.50426912 -0.60230207 0.78560364
-1.875 8.6479998 -1.054 -0.010806918 0.50384837 -0.6042614 0.78683656
-1.905 8.6529999 -1.056 -0.0069778715 0.50455534 -0.60143173 0.78507638
-2.02 8.6560001 -1.0599999 0.00028887531 0.50605929 -0.59454072 0.78075266
-2.046 8.6440001 -1.059 0.0023838384 0.50608957 -0.59435678 0.78063583
-2.079 8.6639996 -1.063 0.0036905899 0.50659269 -0.59195375 0.77913994
-2.0899999 8.651 -1.062 0.0049245292 0.50737321 -0.58760941 0.77636117
-2.1199999 8.6560001 -1.063 0.0083764642 0.50718617 -0.5886187 0.77703279
-2.1500001 8.6610003 -1.0650001 0.0098249959 0.50859839 -0.58041829 0.77178639
-3.2049999 8.8210001 -1.13 0.072635725 0.49785483 -0.61365575 0.79354191
-3.247 8.8500004 -1.136 0.082595751 0.49489826 -0.6200279 0.79760951
-3.319 8.9630003 -1.155 0.095603719 0.49358699 -0.61751145 0.79629678
0.046999998 8.9860001 -1.114 -0.19766957 0.46602294 -0.5874576 0.77547216
0.018999999 8.9329996 -1.107 -0.16822551 0.47676733 -0.59361947 0.77973777
0.0049999999 8.8339996 -1.092 -0.099851377 0.49101147 -0.61902547 0.79640132
-0.023 8.8509998 -1.095 -0.098191597 0.49124783 -0.6196754 0.79684603
-0.050000001 8.8079996 -1.0880001 -0.094233409 0.49232233 -0.61817211 0.79586303
-0.078000002 8.8190002 -1.09 -0.093448669 0.4923017 -0.61896729 0.79637563
-0.105 8.7779999 -1.084 -0.091717087 0.49238598 -0.61954641 0.7966767
-0.133 8.7629995 -1.082 -0.090411596 0.49215525 -0.6212042 0.79767513
-0.16 8.7650003 -1.082 -0.089529224 0.4922148 -0.62162554 0.79794055
-0.17399999 8.7469997 -1.08 -0.088391654 0.49235281 -0.62174428 0.79799145
-0.20100001 8.7399998 -1.079 -0.086325169 0.49185249 -0.62500608 0.80000222
-0.229 8.7539997 -1.081 -0.085032254 0.4918336 -0.62606359 0.80067867
-0.25600001 8.7469997 -1.08 -0.083804958 0.49173942 -0.62708145 0.80128777
-0.28400001 8.7620001 -1.082 -0.082761541 0.49163836 -0.62826025 0.80204034
-0.31099999 8.7449999 -1.08 -0.076966152 0.49337381 -0.62527895 0.80019701
-0.338 8.7360001 -1.079 -0.074591637 0.4940111 -0.62410104 0.79944545
-0.366 8.7410002 -1.08 -0.072034098 0.49383363 -0.62631083 0.80082816
-0.37900001 8.7299995 -1.0779999 -0.072092794 0.49378526 -0.62629396 0.80079043
-0.40599999 8.7250004 -1.0779999 -0.069744766 0.49501204 -0.62273818 0.79856378
-0.433 8.7139997 -1.076 -0.066310763 0.49530637 -0.62338567 0.79895878
-0.461 8.7250004 -1.0779999 -0.064582705 0.49501929 -0.62549806 0.80028927
-0.48800001 8.7130003 -1.077 -0.064970307 0.4950932 -0.62472302 0.79976076
-0.51499999 8.7060003 -1.076 -0.062487334 0.4954336 -0.62460077 0.79967815
-0.54400003 8.7259998 -1.079 -0.060932022 0.49555123 -0.62516195 0.80006951
-0.55599999 8.7010002 -1.075 -0.060486071 0.4953379 -0.62581545 0.80041438
-0.58399999 8.7130003 -1.077 -0.058725927 0.49626556 -0.62325835 0.79886121
-0.61199999 8.7150002 -1.0779999 -0.056601558 0.49672219 -0.62256491 0.79845083
-0.639 8.7049999 -1.077 -0.05416872 0.49628741 -0.62525707 0.80011368
-0.66600001 8.6949997 -1.076 -0.053031165 0.49686766 -0.62342608 0.79896802
-0.73799998 8.8940001 -1.105 -0.046721399 0.49846363 -0.62239528 0.79876453
-0.73100001 8.6560001 -1.071 -0.045360774 0.49796951 -0.62183183 0.79793864
-0.78399998 8.6339998 -1.068 -0.042743314 0.4997535 -0.61532235 0.79385275
-0.81599998 8.6890001 -1.077 -0.042377956 0.49930364 -0.61791152 0.79555935
-0.84600002 8.7060003 -1.079 -0.039621633 0.49949628 -0.61833513 0.79586726
-0.87099999 8.6809998 -1.076 -0.038615584 0.50055975 -0.61396277 0.79309618
-0.89899999 8.6899996 -1.0779999 -0.03651822 0.50121874 -0.61196899 0.79187113
-0.926 8.6800003 -1.077 -0.034972731 0.50165218 -0.61045718 0.79090834
-0.94199997 8.6999998 -1.08 -0.03386445 0.5021866 -0.60870916 0.78985125
-0.96799999 8.6850004 -1.0779999 -0.032307744 0.50246263 -0.60785198 0.78930128
-0.99699998 8.698 -1.081 -0.032232016 0.50297064 -0.60569364 0.78796142
-1.021 8.6709995 -1.077 -0.031537112 0.50298715 -0.60532391 0.78765959
-1.048 8.6660004 -1.077 -0.030758429 0.50305271 -0.60512233 0.78751582
-1.0779999 8.6820002 -1.08 -0.029550131 0.50388134 -0.60177344 0.78543037
-1.105 8.6800003 -1.08 -0.030376632 0.50368601 -0.60228521 0.78572887
-1.131 8.6669998 -1.079 -0.030678244 0.50336188 -0.60336745 0.78636289
-1.145 8.6630001 -1.0779999 -0.030728616 0.50322831 -0.60385615 0.78665447
-1.174 8.6750002 -1.081 -0.030710828 0.50388575 -0.60084891 0.78476965
-1.201 8.6719999 -1.081 -0.0311861 0.50323176 -0.60367453 0.78653526
-1.228 8.6660004 -1.08 -0.031287253 0.50352317 -0.60198277 0.7854284
-1.258 8.6759996 -1.082 -0.031067155 0.50332409 -0.60310137 0.78614986
-1.286 8.6780005 -1.0829999 -0.032838009 0.50394636 -0.59947312 0.78384197
-1.312 8.6680002 -1.082 -0.033384226 0.50392896 -0.59910876 0.78357524
-1.326 8.6680002 -1.0829999 -0.033445012 0.50410306 -0.59815848 0.78296357
-1.355 8.6750002 -1.084 -0.034158316 0.50359762 -0.6004281 0.78440499
-1.38 8.6569996 -1.082 -0.034267366 0.50378919 -0.59911615 0.78352922
-1.409 8.6639996 -1.084 -0.035095684 0.50461894 -0.59465033 0.78069264
-1.437 8.6619997 -1.084 -0.035067782 0.50390506 -0.59824646 0.78297442
-1.4680001 8.6809998 -1.0880001 -0.034492753 0.50417399 -0.59736305 0.78244734
-1.493 8.6610003 -1.086 -0.033769764 0.50380898 -0.59916079 0.78355443
-1.506 8.6560001 -1.085 -0.03367066 0.50351 -0.60056061 0.78442913
-1.539 8.6850004 -1.09 -0.032682739 0.50431699 -0.59726954 0.78239036
-1.562 8.6540003 -1.086 -0.030382011 0.50409102 -0.59878701 0.78331137
-1.5930001 8.6730003 -1.09 -0.031067222 0.50452769 -0.59655607 0.7819159
-1.62 8.6660004 -1.09 -0.028974721 0.50452536 -0.59718543 0.78231436
-1.649 8.6700001 -1.091 -0.028216166 0.50451791 -0.59745467 0.78248745
-1.678 8.6730003 -1.092 -0.025347978 0.50503898 -0.59575319 0.78142738
-1.702 8.6499996 -1.09 -0.022355858 0.50499183 -0.59654963 0.78191304
-1.719 8.6689997 -1.0930001 -0.021298818 0.50524509 -0.59579587 0.78147227
-1.743 8.6479998 -1.09 -0.01967651 0.50532204 -0.59547246 0.78123301
-1.777 8.6730003 -1.095 -0.018658115 0.50632983 -0.5906806 0.77821696
-1.799 8.6429996 -1.091 -0.017583752 0.50534201 -0.5957101 0.78137714
-1.826 8.6370001 -1.091 -0.014549411 0.50632328 -0.5911203 0.77845883
-1.859 8.658 -1.095 -0.011370575 0.50586641 -0.59430712 0.78053254
-1.8890001 8.6619997 -1.097 -0.0095225703 0.50661767 -0.59065831 0.77822191
-1.902 8.6590004 -1.097 -0.0077281492 0.50690353 -0.58933181 0.77738208
-1.926 8.6389999 -1.095 -0.005101359 0.50723642 -0.58753544 0.77621692
-1.957 8.6490002 -1.097 -0.002922127 0.50738239 -0.58704758 0.77593189
-1.989 8.6639996 -1.1 -0.0019887025 0.50700033 -0.58946437 0.77750981
-2.0139999 8.6479998 -1.099 -4.1399151e-05 0.50764751 -0.58575463 0.77512223
-2.043 8.651 -1.1 0.0019801343 0.5078786 -0.58455902 0.77437317
-2.0650001 8.6230001 -1.097 0.0034658888 0.50930381 -0.57560384 0.76858455
-2.0840001 8.6409998 -1.1 0.0044372943 0.50997627 -0.57130277 0.76582134
-2.1170001 8.6560001 -1.103 0.0067986622 0.50947058 -0.57491994 0.76820529
-2.145 8.6529999 -1.104 0.0080867037 0.50920051 -0.57659805 0.76929569
-2.174 8.6560001 -1.105 0.0089681698 0.50892228 -0.57845122 0.77051157
-2.2 8.6429996 -1.105 0.009890615 0.50819451 -0.58273172 0.77326304
-2.227 8.6339998 -1.104 0.012772145 0.50711054 -0.58856094 0.77699953
-2.2579999 8.6450005 -1.107 0.012927806 0.50721395 -0.58807021 0.77669793
-2.2809999 8.6219997 -1.105 0.014452314 0.50627428 -0.59270805 0.77963156
-2.3010001 8.6409998 -1.108 0.014656378 0.50652856 -0.59163791 0.77898741
-2.3299999 8.6420002 -1.109 0.017000051 0.50529009 -0.59769332 0.78284377
-2.355 8.6269999 -1.108 0.018124752 0.50480247 -0.59982091 0.78418058
-2.3829999 8.6230001 -1.109 0.01964619 0.50408643 -0.60308814 0.78625977
-2.4230001 8.6610003 -1.1160001 0.021441884 0.50365025 -0.60524797 0.78768545
-2.4430001 8.625 -1.1109999 0.021766713 0.50262892 -0.60940444 0.79024261
-2.4760001 8.6379995 -1.114 0.023075929 0.50227875 -0.61079341 0.79112893
-2.494 8.6499996 -1.117 0.023082357 0.50199842 -0.61218494 0.79202628
-2.5150001 8.6230001 -1.114 0.02557156 0.5005424 -0.61738783 0.7952134
-2.5550001 8.6569996 -1.12 0.025933642 0.50048947 -0.61782759 0.7955333
-2.5840001 8.6540003 -1.1210001 0.027203837 0.4998993 -0.61997652 0.7968753
-2.6070001 8.6350002 -1.119 0.028374523 0.49930453 -0.62195987 0.79808784
-2.645 8.6599998 -1.125 0.030010805 0.49964291 -0.62041879 0.79715943
-2.675 8.6599998 -1.126 0.031350512 0.4992421 -0.62178367 0.79802287
-2.6989999 8.6420002 -1.124 0.033110477 0.49830192 -0.6249184 0.79995257
-2.7119999 8.6359997 -1.124 0.03494012 0.49730071 -0.62827671 0.80203515
-2.753 8.6719999 -1.131 0.037054293 0.49672523 -0.63018817 0.80327213
-2.77 8.632 -1.126 0.038215056 0.49492013 -0.63614082 0.80689615
-2.8069999 8.651 -1.13 0.039919328 0.49423432 -0.63829535 0.80825865
-2.8440001 8.6719999 -1.135 0.041712787 0.49635515 -0.63039535 0.80343431
-3.3310001 8.743 -1.169 0.081981942 0.49020484 -0.63677651 0.80777848
-3.3800001 8.7860003 -1.177 0.087314904 0.48781422 -0.64234984 0.81129521
-3.402 8.8030005 -1.1799999 0.08891397 0.48741007 -0.64299113 0.8117339
-3.467 8.8859997 -1.1950001 0.10604752 0.47897571 -0.65929222 0.82178468
0.067000002 8.9469995 -1.173 -0.1811257 0.47232997 -0.59070474 0.77771086
0.039000001 8.9510002 -1.174 -0.1784184 0.47313622 -0.59215111 0.77867448
-0.017999999 8.9879999 -1.179 -0.17755039 0.47462815 -0.58686042 0.77537161
-0.045000002 8.8120003 -1.152 -0.093215875 0.49573874 -0.60447431 0.78729624
-0.072999999 8.7939997 -1.15 -0.085878 0.49657384 -0.60691977 0.78886765
-0.086999997 8.7980003 -1.15 -0.088792905 0.49464726 -0.61285031 0.79255641
-0.117 9.0249996 -1.1849999 -0.16185614 0.48066729 -0.58673424 0.77556145
-0.142 8.7659998 -1.145 -0.08822304 0.49472165 -0.61248058 0.79225332
-0.169 8.7629995 -1.145 -0.088595554 0.49433902 -0.6136995 0.79299891
-0.197 8.79 -1.149 -0.08552067 0.49432817 -0.61636657 0.79472125
-0.22499999 8.7919998 -1.15 -0.083361305 0.49423689 -0.61835343 0.79597753
-0.252 8.7709999 -1.147 -0.082822576 0.4939861 -0.61937153 0.79655695
-0.266 8.7729998 -1.147 -0.080435716 0.49470663 -0.61825019 0.79588813
-0.294 8.7840004 -1.149 -0.076740429 0.49565676 -0.61704063 0.79517537
-0.31999999 8.7449999 -1.143 -0.075245515 0.49677053 -0.61270636 0.79237109
-0.347 8.7379999 -1.142 -0.073259175 0.49703062 -0.61268067 0.79232818
-0.375 8.743 -1.143 -0.071204238 0.49762321 -0.61154085 0.79163194
-0.40200001 8.7320004 -1.142 -0.06661959 0.49724114 -0.61574435 0.79424685
-0.42899999 8.7229996 -1.14 -0.065515742 0.49558488 -0.62280464 0.79861271
-0.44299999 8.7259998 -1.141 -0.065163471 0.49643081 -0.61964637 0.79665017
-0.47 8.7209997 -1.14 -0.063995913 0.49523458 -0.624874 0.79988766
-0.498 8.7209997 -1.141 -0.061576895 0.4953936 -0.62539035 0.80019969
-0.52499998 8.7159996 -1.14 -0.059233695 0.49415705 -0.63104928 0.80369335
-0.55299997 8.7220001 -1.141 -0.058286633 0.49605989 -0.62447202 0.7996487
-0.58099997 8.7340002 -1.143 -0.057621099 0.49879229 -0.61390251 0.79308903
-0.60699999 8.7040005 -1.1390001 -0.056604601 0.49352327 -0.63425934 0.80563903
-0.634 8.698 -1.1390001 -0.055236112 0.49218667 -0.63942742 0.80880541
-0.64899999 8.7130003 -1.141 -0.053553063 0.49498528 -0.63040906 0.80330193
-0.67500001 8.7049999 -1.14 -0.052679539 0.49327609 -0.63680476 0.80722779
-0.70499998 8.7250004 -1.143 -0.051784709 0.49813765 -0.6191417 0.79634118
-0.73000002 8.7049999 -1.141 -0.047712348 0.49461383 -0.63394511 0.80548477
-0.75800002 8.6999998 -1.14 -0.043502014 0.49582818 -0.63107622 0.80373824
-0.78600001 8.7080002 -1.142 -0.041891273 0.49743527 -0.62569231 0.80042964
-0.84100002 8.7030001 -1.142 -0.039216645 0.49864987 -0.62180924 0.79802024
-0.85399997 8.7010002 -1.142 -0.037937589 0.4988586 -0.6213643 0.79774231
-0.88099998 8.6949997 -1.141 -0.036669295 0.49898732 -0.6211912 0.79762864
-0.90899998 8.698 -1.142 -0.035687719 0.49930832 -0.62020928 0.79702067
-0.93599999 8.6870003 -1.141 -0.033900987 0.49754712 -0.62748075 0.80152017
-0.963 8.6879997 -1.142 -0.0325801 0.4989959 -0.62225121 0.7982825
-0.991 8.6870003 -1.142 -0.031215316 0.49931657 -0.62138611 0.79775447
-1.0190001 8.6879997 -1.142 -0.029949296 0.49970889 -0.62005937 0.79691881
-1.031 8.6759996 -1.141 -0.030323019 0.49831495 -0.6252746 0.80012846
-1.0599999 8.6870003 -1.143 -0.029264767 0.50005531 -0.61872238 0.79607105
-1.091 8.7130003 -1.148 -0.029083241 0.5046792 -0.59840828 0.78335142
-1.117 8.7030001 -1.147 -0.028409097 0.50377172 -0.60274988 0.78606647
-1.143 8.684 -1.1440001 -0.029794423 0.50080341 -0.61515468 0.79379284
-1.17 8.6829996 -1.145 -0.029969353 0.50171173 -0.61109805 0.79123551
-1.196 8.6689997 -1.143 -0.029870139 0.5002054 -0.61724705 0.79504186
-1.211 8.6750002 -1.1440001 -0.030242797 0.50184309 -0.61015427 0.79060066
-1.24 8.6829996 -1.146 -0.03124392 0.50205857 -0.60887218 0.78978753
-1.266 8.6689997 -1.145 -0.03075836 0.50060016 -0.61514151 0.79369116
-1.293 8.6669998 -1.145 -0.031070802 0.50173473 -0.61006236 0.79049301
-1.321 8.6689997 -1.146 -0.032695509 0.50103998 -0.61249852 0.79200029
-1.349 8.6689997 -1.146 -0.033163887 0.5024724 -0.60591811 0.78785473
-1.375 8.6540003 -1.145 -0.033682294 0.50174356 -0.6087243 0.78957355
-1.406 8.6750002 -1.149 -0.035702143 0.50503552 -0.59232855 0.77922308
-1.419 8.6669998 -1.148 -0.035149187 0.5038172 -0.59861016 0.78319949
-1.448 8.6730003 -1.149 -0.03490185 0.50468487 -0.59438872 0.78052729
-1.475 8.6700001 -1.15 -0.03526004 0.5052464 -0.59121072 0.77849042
-1.5039999 8.677 -1.152 -0.033856653 0.50638622 -0.58556747 0.77489513
-1.531 8.6660004 -1.151 -0.034059756 0.50586367 -0.58822638 0.77657479
-1.559 8.6689997 -1.152 -0.032867476 0.50697809 -0.58233368 0.77279985
-1.557 8.4989996 -1.126 -0.024727099 0.48883513 -0.65602744 0.81850058
-1.598 8.6479998 -1.15 -0.029658906 0.50412267 -0.598616 0.78317326
-1.628 8.6630001 -1.153 -0.029316097 0.50721389 -0.58219504 0.77270722
-1.722 8.8599997 -1.1849999 -0.031933166 0.51425231 -0.51541239 0.72878325
-1.714 8.6660004 -1.156 -0.023568712 0.50801015 -0.57949507 0.77100217
-1.74 8.6549997 -1.155 -0.021199364 0.50764668 -0.58224845 0.77276635
-1.767 8.6499996 -1.155 -0.018568253 0.50771642 -0.58245122 0.77289724
-1.781 8.651 -1.155 -0.017765518 0.50844109 -0.57829189 0.7702269
-1.8099999 8.6549997 -1.1569999 -0.014737247 0.50855625 -0.57834762 0.77028084
-1.837 8.6470003 -1.1569999 -0.014420744 0.50851792 -0.57847786 0.77034742
-1.865 8.6429996 -1.1569999 -0.011137296 0.50868446 -0.57806051 0.77008957
-1.895 8.6529999 -1.159 -0.0083660334 0.50864768 -0.57885146 0.7706241
-1.923 8.651 -1.16 -0.0055383332 0.50904989 -0.57671916 0.76926428
-1.949 8.6370001 -1.159 -0.0046492536 0.50933933 -0.57481623 0.76802468
-1.978 8.6400003 -1.16 -0.0024305554 0.51002175 -0.57042503 0.7651881
-1.993 8.6450005 -1.1619999 -0.00093826326 0.51042634 -0.56777573 0.76348233
-2.0220001 8.6440001 -1.1619999 0.00082702911 0.51111311 -0.56270432 0.76017988
-2.049 8.6400003 -1.163 0.0017163451 0.51082861 -0.56496751 0.76166731
-2.0769999 8.6370001 -1.163 0.0024890713 0.5105449 -0.56716537 0.76311129
-2.108 8.6440001 -1.165 0.002385668 0.51029062 -0.5690648 0.76435393
-2.1359999 8.6409998 -1.166 0.0055443104 0.50957793 -0.57403362 0.76760346
-2.164 8.6379995 -1.1670001 0.0055813571 0.50947273 -0.57477862 0.7680912
-2.1800001 8.6450005 -1.168 0.0062237345 0.50958991 -0.57404792 0.7676273
-2.207 8.6379995 -1.168 0.0075696744 0.50876629 -0.57919902 0.7709552
-2.2379999 8.6459999 -1.171 0.0096417237 0.50803804 -0.58356303 0.77378386
-2.266 8.6429996 -1.171 0.010619377 0.50778019 -0.58492559 0.7746557
-2.2950001 8.6429996 -1.1720001 0.01052163 0.50747979 -0.58666295 0.77577049
-2.3239999 8.6420002 -1.173 0.012150722 0.50666642 -0.59100336 0.77855217
-2.3529999 8.6400003 -1.174 0.014225595 0.50566429 -0.59614742 0.7818507
-2.378 8.6269999 -1.173 0.015874671 0.50486624 -0.59979385 0.78415215
-2.398 8.6440001 -1.177 0.016060855 0.5045833 -0.60130072 0.78512728
-2.424 8.6350002 -1.176 0.016788216 0.50383222 -0.60472184 0.78728479
-2.4519999 8.6289997 -1.177 0.017848194 0.50315082 -0.60753739 0.789038
-2.4820001 8.6330004 -1.178 0.018950146 0.50251359 -0.61022741 0.79073167
-2.513 8.6379995 -1.181 0.021884758 0.50157613 -0.61379886 0.79297322
-2.54 8.6280003 -1.1799999 0.023051986 0.501037 -0.61578667 0.79420573
-2.5710001 8.6339998 -1.182 0.023609456 0.50053173 -0.61785746 0.79551065
-2.5880001 8.6409998 -1.184 0.024673294 0.50293154 -0.60738516 0.78896493
-2.612 8.6230001 -1.183 0.025325729 0.50096279 -0.61561894 0.79409814
-2.6400001 8.6190004 -1.183 0.026492277 0.50061047 -0.61688191 0.79489368
-2.675 8.6370001 -1.188 0.028739046 0.50290573 -0.60656488 0.78845489
-2.7 8.6190004 -1.186 0.030401358 0.50088114 -0.61493498 0.79369462
-2.734 8.6330004 -1.1900001 0.031690866 0.50041652 -0.61674017 0.79485184
-2.7639999 8.6339998 -1.191 0.032507252 0.49942195 -0.62062907 0.79728252
-2.7909999 8.625 -1.191 0.033420231 0.49822164 -0.62513304 0.80008316
-2.8080001 8.632 -1.193 0.034623008 0.49772227 -0.62682402 0.80114579
-2.842 8.6440001 -1.196 0.036817946 0.49675858 -0.6299895 0.80312604
-2.872 8.6420002 -1.198 0.037363373 0.49534521 -0.6349932 0.8062129
-2.901 8.6389999 -1.198 0.040028837 0.49478585 -0.63631129 0.80703616
-2.9330001 8.6470003 -1.201 0.044940475 0.49318084 -0.64059979 0.80970061
-2.9590001 8.632 -1.2 0.047884893 0.4897902 -0.65074694 0.81587929
-2.99 8.6339998 -1.202 0.0524006 0.48717099 -0.65750468 0.81999624
-3.0079999 8.6440001 -1.205 0.056030966 0.48689052 -0.65727389 0.81988466
-3.0369999 8.6400003 -1.205 0.059852183 0.48569459 -0.65956151 0.82128125
-3.075 8.6599998 -1.21 0.068618834 0.48205969 -0.66694933 0.82577932
-3.099 8.6409998 -1.209 0.06880267 0.47962186 -0.67345035 0.82964224
-3.132 8.6479998 -1.212 0.074850939 0.47547829 -0.68198371 0.83473593
-3.1630001 8.6479998 -1.2130001 0.078520417 0.4720633 -0.68903393 0.83891416
-3.1930001 8.6470003 -1.215 0.08282271 0.46587515 -0.70173872 0.84636664
-3.233 8.6700001 -1.22 0.087860845 0.46604165 -0.69955868 0.84516078
-3.253 8.684 -1.223 0.092215225 0.46417475 -0.7019794 0.84660321
-3.2750001 8.6590004 -1.221 0.095330238 0.45687512 -0.71601242 0.85469091
0.17299999 9.1639996 -1.33 0.35243693 -0.30975041 -0.35203928 0.58659083
0.142 9.0209999 -1.307 -0.17298144 0.47604483 -0.58994627 0.77754605
0.113 8.9259996 -1.2920001 -0.15886672 0.48151651 -0.58671463 0.77545524
0.083999999 8.8620005 -1.2819999 -0.14562646 0.4855656 -0.58786255 0.77624959
0.056000002 8.8219995 -1.276 -0.14971982 0.47468829 -0.62808287 0.80139446
0.028000001 8.7869997 -1.27 -0.13952033 0.47349536 -0.64301199 0.81063443
0.001 8.7849998 -1.27 -0.13263924 0.47806352 -0.63477886 0.80565631
-0.027000001 8.7629995 -1.266 -0.12753507 0.47700191 -0.64301062 0.8107149
-0.039999999 8.7530003 -1.265 -0.119852 0.47805092 -0.64634699 0.8128109
-0.068000004 8.7449999 -1.263 -0.11434454 0.48033112 -0.64357424 0.81115997
-0.094999999 8.743 -1.263 -0.10788976 0.48181963 -0.64392257 0.81143492
-0.122 8.7250004 -1.26 -0.095461801 0.48318306 -0.64835155 0.81421036
-0.15000001 8.7220001 -1.26 -0.092069864 0.48505104 -0.64456755 0.81192285
-0.177 8.71 -1.258 -0.085296556 0.48578697 -0.64625579 0.81296438
-0.204 8.698 -1.256 -0.065869138 0.48521617 -0.65801662 0.8202191
-0.21799999 8.7030001 -1.257 -0.069346949 0.48576742 -0.65476078 0.81822413
-0.245 8.7060003 -1.258 -0.068381354 0.48780626 -0.64885074 0.81463993
-0.271 8.658 -1.25 -0.058278717 0.48511481 -0.66080904 0.82182807
-0.29899999 8.6709995 -1.252 -0.057683274 0.48735657 -0.65439868 0.81797397
-0.32600001 8.6719999 -1.253 -0.056144115 0.48738527 -0.6548627 0.81825531
-0.37900001 8.6459999 -1.249 -0.057480507 0.48733938 -0.65402019 0.81764668
-0.39199999 8.6300001 -1.2460001 -0.055857234 0.48764762 -0.65348798 0.81729233
-0.421 8.6680002 -1.253 -0.056471504 0.48955095 -0.64764345 0.81381273
-0.458 8.8400002 -1.28 -0.076706678 0.49694431 -0.61173052 0.79186606
-0.48800001 8.8719997 -1.286 -0.076855868 0.50402379 -0.57563376 0.76896101
-0.51800001 8.9060001 -1.291 -0.07477656 0.50557452 -0.56812465 0.76417452
-0.54900002 8.9519997 -1.299 -0.07251136 0.50683004 -0.56269401 0.76076221
-0.57599998 8.934 -1.296 -0.064351544 0.50755757 -0.56562221 0.76268232
-0.60299999 8.9259996 -1.295 -0.061095107 0.50794894 -0.56568378 0.7627207
-0.61699998 8.9259996 -1.295 -0.061181758 0.50777513 -0.5667364 0.76339304
-0.64300001 8.8900003 -1.29 -0.058455236 0.50713837 -0.57239556 0.76697004
-0.66100001 8.7600002 -1.27 -0.0497941 0.49376488 -0.63665229 0.8072232
-0.67799997 8.632 -1.25 -0.044706132 0.48832044 -0.65491533 0.8181501
-0.70499998 8.6219997 -1.248 -0.043315239 0.48947442 -0.65165079 0.81615573
-0.73199999 8.6269999 -1.25 -0.042364866 0.48959884 -0.65158826 0.81613052
-0.75999999 8.6350002 -1.251 -0.039191097 0.49018162 -0.65075678 0.81565821
-0.77600002 8.6549997 -1.255 -0.040126346 0.49083486 -0.64857507 0.81435776
-0.82999998 8.6459999 -1.2539999 -0.037547316 0.49127629 -0.64781308 0.81389433
-0.85799998 8.6540003 -1.256 -0.036974557 0.49227521 -0.64476097 0.81204599
-0.88300002 8.6309996 -1.252 -0.036107697 0.49141669 -0.64750981 0.8136726
-0.912 8.6459999 -1.255 -0.033872176 0.49202833 -0.64623207 0.81292993
-0.93900001 8.6389999 -1.255 -0.032120608 0.49299067 -0.64337558 0.81117427
-0.95200002 8.6300001 -1.253 -0.032191299 0.49203953 -0.64635634 0.81296724
-0.97899997 8.6269999 -1.253 -0.031202774 0.4929783 -0.64341807 0.81116462
-1.007 8.6339998 -1.255 -0.03104648 0.49370918 -0.64098608 0.80967635
-1.035 8.6339998 -1.256 -0.030604893 0.49333453 -0.64229196 0.81046569
-1.0599999 8.6190004 -1.2539999 -0.030082911 0.49275962 -0.64400893 0.81145829
-1.0880001 8.6239996 -1.255 -0.02946928 0.4943766 -0.63870108 0.80821759
-1.1160001 8.6260004 -1.256 -0.030512838 0.49421281 -0.63902539 0.80841249
-1.1440001 8.6280003 -1.257 -0.028423076 0.49361846 -0.64153528 0.80995965
-1.158 8.6269999 -1.257 -0.028061565 0.49373326 -0.64113271 0.80969816
-1.1849999 8.6230001 -1.257 -0.029571312 0.49365956 -0.64096731 0.80957603
-1.212 8.6230001 -1.257 -0.028880449 0.4938482 -0.64044398 0.8092519
-1.237 8.6059999 -1.255 -0.02950057 0.49375862 -0.64035475 0.80914897
-1.267 8.6210003 -1.258 -0.029147366 0.4938626 -0.64022291 0.80909526
-1.294 8.6110001 -1.257 -0.029681958 0.49442646 -0.63801324 0.80771244
-1.325 8.632 -1.261 -0.030519031 0.49496701 -0.63607305 0.80654365
-1.351 8.6219997 -1.261 -0.032512162 0.49494174 -0.63557214 0.80621111
-1.363 8.6140003 -1.26 -0.033248167 0.49446738 -0.63690805 0.80700392
-1.39 8.6079998 -1.2589999 -0.033401713 0.49424687 -0.63753521 0.80737031
-1.418 8.6079998 -1.26 -0.034715157 0.49384153 -0.6385625 0.8079893
-1.4450001 8.6049995 -1.26 -0.034025524 0.49403608 -0.63798821 0.80762511
-1.476 8.6199999 -1.263 -0.034883592 0.49375248 -0.6388278 0.80815184
-1.5 8.6020002 -1.261 -0.033263065 0.49431792 -0.63718754 0.80713362
-1.529 8.6070004 -1.263 -0.031311844 0.49412188 -0.63837898 0.80787659
-1.545 8.6160002 -1.265 -0.031611275 0.49476862 -0.63616192 0.80653411
-1.5700001 8.6029997 -1.263 -0.02961845 0.49453241 -0.63735914 0.80725849
-1.599 8.6099997 -1.265 -0.028385829 0.49463725 -0.63733703 0.80726093
-1.627 8.6070004 -1.266 -0.027988598 0.49526796 -0.63521665 0.80596149
-1.654 8.6000004 -1.265 -0.023691708 0.49501985 -0.63689464 0.80699486
-1.684 8.6099997 -1.268 -0.022133496 0.4961628 -0.6332404 0.80477375
-1.707 8.5869999 -1.265 -0.020578476 0.49635142 -0.63263661 0.80437386
-1.725 8.6040001 -1.268 -0.018357739 0.49617267 -0.6338222 0.80514282
-1.751 8.5959997 -1.268 -0.014880836 0.49687007 -0.63170552 0.80383652
-1.777 8.585 -1.267 -0.011434865 0.49845952 -0.62618005 0.8004337
-1.808 8.599 -1.27 -0.0084325075 0.49891484 -0.62488174 0.79966515
-1.835 8.5950003 -1.27 -0.0060845055 0.4982692 -0.62752235 0.80130738
-1.862 8.5889997 -1.27 -0.0055508367 0.49752483 -0.63029981 0.80301905
-1.893 8.599 -1.273 -0.0022912719 0.4978798 -0.62926555 0.80241179
-1.916 8.5769997 -1.27 -0.00032298174 0.49634254 -0.63484406 0.80584306
-1.9400001 8.6210003 -1.278 0.0021692994 0.4990634 -0.6251061 0.79989159
-1.961 8.5869999 -1.273 0.0048836409 0.49621028 -0.63550895 0.80630028
-1.989 8.585 -1.274 0.0055215238 0.49537572 -0.63844377 0.80810767
-2.016 8.5790005 -1.274 0.0071682809 0.49447408 -0.64145285 0.80994922
-2.0469999 8.5880003 -1.277 0.008270625 0.49484822 -0.64021969 0.80921221
-2.073 8.5790005 -1.276 0.0096458187 0.49419484 -0.64232939 0.81049901
-2.102 8.5810003 -1.277 0.012122738 0.49342084 -0.6448108 0.8120296
-2.118 8.5889997 -1.279 0.011047804 0.49440402 -0.64163804 0.8100968
-2.1470001 8.5900002 -1.281 0.01442722 0.49374482 -0.64366668 0.81135619
-2.1730001 8.5769997 -1.28 0.014396735 0.49249291 -0.64759362 0.81371617
-2.2030001 8.5839996 -1.2819999 0.017479656 0.49126497 -0.65131217 0.81599897
-2.2290001 8.5710001 -1.281 0.018990297 0.48933914 -0.65709484 0.81950414
-2.2579999 8.5719995 -1.2819999 0.020413976 0.48794019 -0.66110665 0.82192725
-2.286 8.5679998 -1.283 0.019994065 0.48734513 -0.66287988 0.82299137
-2.3010001 8.5699997 -1.284 0.024032013 0.48616007 -0.66586924 0.82480967
-2.329 8.5690002 -1.285 0.024459861 0.48745963 -0.66210955 0.8225596
-2.3599999 8.5749998 -1.2869999 0.026103705 0.49049255 -0.65274876 0.81691206
-2.3859999 8.5649996 -1.2869999 0.025838006 0.48810026 -0.65989554 0.82120132
-2.4119999 8.5559998 -1.286 0.029008457 0.48475027 -0.66895568 0.82663536
-2.4449999 8.5690002 -1.29 0.033521757 0.48993942 -0.65300703 0.81705725
-2.4719999 8.5609999 -1.29 0.036578182 0.48777577 -0.65888578 0.82060564
-2.5020001 8.5629997 -1.291 0.038265049 0.48693451 -0.66104579 0.82191908
-2.52 8.5760002 -1.294 0.033664204 0.4941763 -0.63918644 0.80864257
-2.5439999 8.5570002 -1.2920001 0.039096195 0.4855392 -0.66485393 0.82420117
-2.5769999 8.5699997 -1.296 0.034874082 0.48933735 -0.65455973 0.81799489
-2.605 8.5629997 -1.296 0.037503406 0.48714909 -0.6605745 0.82163215
-2.6329999 8.5609999 -1.2970001 0.038056895 0.48607969 -0.66357332 0.82343876
-2.6619999 8.5579996 -1.298 0.037836615 0.48547372 -0.66538525 0.82453251
-2.6949999 8.5690002 -1.301 0.033446465 0.49029472 -0.65201825 0.81647742
-2.7079999 8.5629997 -1.301 0.035505708 0.48853537 -0.65699279 0.81949192
-2.7360001 8.5579996 -1.301 0.036454041 0.48623878 -0.66355836 0.82344806
-2.763 8.5489998 -1.301 0.037210334 0.48483416 -0.66738713 0.82574475
-2.789 8.54 -1.301 0.039020199 0.4804661 -0.67877883 0.83253282
-2.819 8.5410004 -1.303 0.035187025 0.48644212 -0.66320676 0.82322979
-2.8540001 8.5550003 -1.307 0.028649721 0.49603468 -0.63381559 0.80535299
-2.928 8.684 -1.33 0.026708309 0.50321662 -0.60638344 0.78844225
-2.9749999 8.7329998 -1.34 0.032273501 0.50312966 -0.60616195 0.78842461
-3.03 8.8470001 -1.36 0.029919028 0.5083853 -0.58119047 0.77274388
-3.0710001 8.8769999 -1.3660001 0.031938195 0.51023507 -0.5690667 0.76498157
-3.099 8.8669996 -1.3660001 0.040115893 0.50643998 -0.58931011 0.77805984
-3.1300001 8.8649998 -1.368 0.04810534 0.50306392 -0.60314792 0.78687668
-3.1530001 8.842 -1.365 0.053459018 0.49868637 -0.61973661 0.79725748
-3.168 8.7969999 -1.359 0.0455584 0.49395567 -0.63957834 0.8093999
-3.187 8.7650003 -1.3559999 0.05047933 0.48808557 -0.65661061 0.8197031
-3.1830001 8.7089996 -1.347 0.057541348 0.47831824 -0.68107444 0.83424318
-3.1470001 8.5290003 -1.318 0.056599319 0.46602374 -0.70912766 0.85043734
-3.168 8.5039997 -1.316 0.058486357 0.46053693 -0.72000027 0.85668856
-3.3139999 8.5649996 -1.3329999 0.075733289 0.43939707 -0.75453198 0.8764267
-3.355 8.5909996 -1.339 0.079250529 0.43263909 -0.76461279 0.88209409
-3.369 8.5880003 -1.34 0.078167841 0.43142673 -0.76681352 0.88331318
0.17399999 9.0030003 -1.393 -0.15251955 0.48285496 -0.59269118 0.77954727
0.045000002 8.7399998 -1.349 -0.12531178 0.46527603 -0.67788023 0.83168888
0.017000001 8.7440004 -1.349 -0.12826759 0.46576014 -0.67438835 0.82956898
-0.0099999998 8.7320004 -1.347 -0.11935853 0.46962067 -0.67082655 0.82752544
-0.037999999 8.7299995 -1.347 -0.11715323 0.47207034 -0.6657927 0.82453328
-0.064999998 8.7159996 -1.345 -0.10878415 0.47508469 -0.66322869 0.82305026
-0.092 8.7119999 -1.344 -0.10531044 0.47646248 -0.6616236 0.82210249
-0.12 8.7080002 -1.3430001 -0.10481226 0.47795513 -0.65750009 0.81959325
-0.147 8.7030001 -1.3430001 -0.098545305 0.47952908 -0.65697271 0.81931221
-0.16 8.6829996 -1.339 -0.088359699 0.4802945 -0.66075402 0.82163626
-0.18799999 8.6809998 -1.339 -0.083677843 0.48252892 -0.65679622 0.8192786
-0.215 8.6599998 -1.336 -0.072206244 0.48317257 -0.66051263 0.8215512
-0.242 8.6680002 -1.337 -0.073613487 0.48501763 -0.65435922 0.81783068
-0.30500001 8.9519997 -1.385 -0.10794451 0.50310856 -0.53152502 0.7397899
-0.33399999 8.9680004 -1.388 -0.10365752 0.5037967 -0.53607911 0.74292451
-0.34799999 8.96 -1.387 -0.10164133 0.5039373 -0.53955674 0.74525517
-0.37200001 8.8479996 -1.368 -0.091294184 0.49797365 -0.59481025 0.78109646
-0.39399999 8.7270002 -1.348 -0.07364545 0.49292168 -0.62804615 0.8017714
-0.41999999 8.6859999 -1.341 -0.059981145 0.49082851 -0.64202332 0.81037295
-0.447 8.6809998 -1.341 -0.054280531 0.49096793 -0.64394307 0.8115778
-0.47400001 8.6680002 -1.339 -0.051701877 0.48957852 -0.64918733 0.81474191
-0.50199997 8.6780005 -1.341 -0.052204326 0.49094892 -0.644602 0.81195313
-0.51499999 8.6689997 -1.339 -0.052170578 0.49091384 -0.64460474 0.81193191
-0.542 8.6639996 -1.339 -0.049753129 0.49178568 -0.64256978 0.8106938
-0.56999999 8.6739998 -1.341 -0.048999976 0.49263853 -0.64002413 0.80915052
-0.597 8.6719999 -1.341 -0.050864562 0.49343404 -0.63646746 0.80694187
-0.625 8.6820002 -1.3430001 -0.04966215 0.49275655 -0.63935441 0.80873322
-0.65799999 8.757 -1.3559999 -0.049917143 0.49643946 -0.62677634 0.80111951
-0.69499999 8.8839998 -1.378 -0.052471001 0.50682747 -0.5784077 0.77083248
-0.72600001 8.9160004 -1.383 -0.05031972 0.50982797 -0.55962694 0.75870872
-0.74000001 8.9180002 -1.3839999 -0.046728276 0.51010168 -0.56056631 0.7593562
-0.764 8.8710003 -1.376 -0.041918207 0.50687754 -0.58410305 0.7745052
-0.773 8.6520004 -1.34 -0.040061001 0.49363723 -0.63923562 0.80864376
-0.79699999 8.6099997 -1.3329999 -0.039207216 0.49539766 -0.63279241 0.80460066
-0.82599998 8.6280003 -1.336 -0.035808042 0.49425763 -0.63808429 0.8079136
-0.85600001 8.6499996 -1.341 -0.03620794 0.49462348 -0.63691729 0.80723417
-0.88200003 8.6440001 -1.34 -0.034316178 0.49510938 -0.63561511 0.80642265
-0.91000003 8.6470003 -1.341 -0.033776142 0.49511275 -0.63574296 0.8065027
-0.92400002 8.6490002 -1.342 -0.032820705 0.49516907 -0.63577354 0.80652189
-0.95200002 8.6520004 -1.3430001 -0.031845793 0.49539021 -0.63526887 0.80622089
-0.97799999 8.6370001 -1.341 -0.031291328 0.49482501 -0.63715047 0.80733615
-1.005 8.632 -1.34 -0.03095446 0.49531212 -0.63534957 0.80620182
-1.0319999 8.6350002 -1.341 -0.03021035 0.49516159 -0.63604754 0.80663133
-1.058 8.6199999 -1.339 -0.030198798 0.49496979 -0.63638592 0.80678004
-1.086 8.6230001 -1.34 -0.030229498 0.49586046 -0.6332221 0.80483639
-1.101 8.6289997 -1.342 -0.030628838 0.49534327 -0.63502175 0.80595016
-1.128 8.6269999 -1.342 -0.029647771 0.49549043 -0.63460666 0.805677
-1.155 8.625 -1.342 -0.029024281 0.49580759 -0.63354629 0.80501455
-1.183 8.6300001 -1.344 -0.028869437 0.49504158 -0.6363278 0.80672961
-1.211 8.6300001 -1.344 -0.028806243 0.49532202 -0.63529944 0.80608875
-1.237 8.6160002 -1.3430001 -0.029344581 0.49576318 -0.63338596 0.80487263
-1.2640001 8.6140003 -1.3430001 -0.030467082 0.49525085 -0.63487929 0.80577499
-1.279 8.6219997 -1.345 -0.029775294 0.49513921 -0.63549942 0.80616927
-1.306 8.6160002 -1.344 -0.030047057 0.49531406 -0.63475347 0.80569899
-1.3329999 8.6099997 -1.344 -0.032089595 0.49544102 -0.63369048 0.80501872
-1.362 8.6190004 -1.346 -0.03250774 0.49565217 -0.63288158 0.80452901
-1.3890001 8.6149998 -1.346 -0.034429744 0.49590352 -0.63127291 0.80349934
-1.4170001 8.6160002 -1.347 -0.033987273 0.49600998 -0.63099474 0.80332768
-1.4450001 8.6219997 -1.349 -0.035802562 0.49603227 -0.63038051 0.80293798
-1.475 8.6289997 -1.351 -0.035148874 0.49700513 -0.62702775 0.80088282
-1.485 8.6090002 -1.348 -0.034393489 0.49674302 -0.62808442 0.80151522
-1.513 8.6099997 -1.349 -0.032028571 0.49867401 -0.62130827 0.797324
-1.539 8.6009998 -1.348 -0.030885244 0.49912646 -0.61976063 0.79635692
-1.571 8.6199999 -1.352 -0.028368073 0.50110096 -0.61240721 0.79180139
-1.597 8.6110001 -1.352 -0.028644053 0.4991622 -0.62030518 0.79671943
-1.626 8.6140003 -1.353 -0.027157051 0.49929214 -0.62022394 0.79668558
-1.652 8.6049995 -1.352 -0.025869019 0.49871707 -0.62271035 0.79822057
-1.666 8.6079998 -1.353 -0.025656926 0.49884275 -0.62230366 0.79797506
-1.692 8.5950003 -1.352 -0.023808241 0.49780309 -0.62664866 0.80066431
-1.72 8.5950003 -1.353 -0.020586044 0.49688914 -0.63064778 0.80314332
-1.749 8.5970001 -1.354 -0.016212502 0.49638221 -0.63327128 0.80479228
-1.775 8.5900002 -1.354 -0.01371304 0.49614006 -0.6344471 0.80552226
-1.802 8.5839996 -1.354 -0.011936426 0.4957011 -0.63618433 0.80659318
-1.831 8.5860004 -1.355 -0.010123457 0.49562508 -0.63665658 0.80689424
-1.844 8.5830002 -1.355 -0.00798795 0.4943338 -0.64132297 0.80976844
-1.873 8.5869999 -1.357 -0.004243914 0.49565366 -0.63710397 0.80721247
-1.904 8.599 -1.36 -0.0012076963 0.4996199 -0.62265319 0.79832232
-1.929 8.5810003 -1.358 0.0014659646 0.49512595 -0.63917339 0.8085137
-1.956 8.5790005 -1.359 0.0021437756 0.49580547 -0.63686252 0.80710691
-1.989 8.5959997 -1.363 0.0054621883 0.50019711 -0.62051779 0.79703784
-2.0109999 8.5699997 -1.359 0.0056745517 0.4928951 -0.6466617 0.81311077
-2.0409999 8.5749998 -1.3609999 0.0087098461 0.49475437 -0.64043784 0.80933207
-2.056 8.5819998 -1.363 0.011324048 0.49865201 -0.6262964 0.80064303
-2.0880001 8.5930004 -1.3660001 0.011912448 0.50109261 -0.61659318 0.79462123
-2.1159999 8.5939999 -1.367 0.013917807 0.50074822 -0.61792088 0.79546762
-2.1470001 8.6000004 -1.37 0.013271576 0.50139624 -0.6152603 0.79380071
-2.1689999 8.5760002 -1.367 0.017039478 0.49711764 -0.63142574 0.80381262
-2.1989999 8.5810003 -1.369 0.018280379 0.49710938 -0.63137251 0.80379295
-2.2309999 8.5909996 -1.372 0.020547774 0.49742454 -0.6300503 0.80300486
-2.2449999 8.5900002 -1.372 0.021255022 0.49730557 -0.63044733 0.80326116
-2.2709999 8.5810003 -1.372 0.021496164 0.49590909 -0.63537592 0.80628192
-2.306 8.6020002 -1.377 0.024562167 0.49825659 -0.62643719 0.80080366
-2.3280001 8.5780001 -1.374 0.028954603 0.49293807 -0.64446223 0.81188536
-2.358 8.5819998 -1.376 0.028605275 0.49383169 -0.64155412 0.81011093
