# .PCD v0.7 - Point Cloud Data file format
VERSION 0.7
FIELDS x y z normal_x normal_y normal_z curvature
SIZE 4 4 4 4 4 4 4
TYPE F F F F F F F
COUNT 1 1 1 1 1 1 1
WIDTH 377
HEIGHT 1
VIEWPOINT 0 0 0 1 0 0 0
POINTS 377
DATA ascii
26.193001 7.8200002 0.29300001 0.045214862 0.52223504 -0.6140939 0.80739403
25.414 7.9380002 0.29100001 0.13187817 -0.24809358 -0.10161194 0.29877627
25.219999 7.9640002 0.28999999 0.095173731 -0.23586258 -0.084835589 0.26811615
25.165001 7.9910002 0.28999999 0.1212969 -0.25302112 -0.10231718 0.29866609
25.155001 8.0740004 0.28999999 0.064874902 -0.21312626 -0.066896647 0.2326085
25.207001 8.2659998 0.28999999 0.19545574 -0.075645454 -0.042772859 0.21390349
25.271999 8.375 0.29100001 0.264384 -0.020495087 -0.064364672 0.27287683
25.374001 8.4980001 0.29100001 0.27303642 0.055463687 -0.065627337 0.28623775
25.474001 8.6199999 0.292 0.26013964 0.070876628 -0.059150308 0.27603421
25.576 8.6990004 0.292 0.29141498 0.087595254 -0.079100579 0.31440821
25.700001 8.8310003 0.292 0.19547878 0.14879535 -0.041394234 0.24912947
27.084 7.836 0.163 0.2088217 -0.3553465 -0.25023311 0.48217657
25.145 7.9200001 0.16599999 0.051056311 -0.32731453 -0.15522221 0.36583531
24.945999 7.9429998 0.16599999 0.049622454 0.41062245 -0.82735813 0.92498356
24.771999 7.9299998 0.16599999 0.13109837 0.40162688 -0.82021552 0.92262912
24.667 7.9819999 0.16599999 0.19192946 0.3672772 -0.8311013 0.92868662
24.718 8.085 0.16599999 0.19035847 0.29927653 -0.88827819 0.95647317
24.719 8.1709995 0.16599999 -0.1648926 -0.1547778 -0.075500578 0.23842414
25.018 8.8409996 0.16500001 -0.066068068 0.19796029 -0.031972647 0.21112914
25.051001 8.941 0.16500001 -0.029652331 0.24096774 -0.042991579 0.24656233
25.1 9.0480003 0.16500001 -0.022954574 0.2615307 -0.051618576 0.26756251
25.122 9.1450005 0.16500001 -0.0016972646 0.27323419 -0.055651516 0.27884924
25.174999 9.2550001 0.16500001 0.060057156 0.28089687 -0.060319275 0.29351035
27.091999 7.7540002 -0.016000001 -0.18302648 0.45858371 -0.67001367 0.83229566
27.101999 7.849 -0.016000001 -0.1830547 0.45899773 -0.6699841 0.83250624
27.09 7.9380002 -0.017000001 -0.18305746 0.45944178 -0.66995078 0.83272493
26.372999 7.8179998 -0.011 0.017582055 0.51117587 -0.65499759 0.83104259
27.073 8.1169996 -0.017000001 0.32575887 -0.30337709 -0.29386604 0.53339833
27.106001 8.2200003 -0.017000001 0.46612552 -0.17715757 -0.4127208 0.64729923
25.674999 7.8319998 -0.0060000001 -0.0067209229 0.44783193 -0.77982342 0.89929038
25.229 7.8699999 -0.0020000001 -0.0078636892 0.43851465 -0.79220909 0.90551209
25.212999 7.9520001 -0.0020000001 -0.021919932 0.419135 -0.81587493 0.91750014
24.497999 7.8969998 0.003 0.18159907 0.4172785 -0.77738971 0.90079647
24.473 7.974 0.003 0.21930027 0.37360033 -0.80851471 0.91725999
25.721001 9.3730001 -0.0099999998 0.14043117 0.19442901 -0.035953283 0.2425205
25.299 9.3100004 -0.0070000002 0.09018594 0.2875275 -0.067449093 0.30879596
24.813999 9.2200003 -0.003 -0.068147354 0.26178104 -0.058438122 0.27674606
24.632 9.1969995 -0.001 -0.135758 0.22278799 -0.059936017 0.26768836
24.645 9.29 -0.0020000001 -0.12114291 0.27202114 -0.078224987 0.30788025
24.639999 9.3769999 -0.0020000001 -0.098320082 0.30625311 -0.091188997 0.33432505
27.122999 7.803 -0.19 -0.11689086 0.48610279 -0.66729468 0.83381146
27.080999 7.8829999 -0.19 -0.11693332 0.48649278 -0.6672675 0.83402312
26.568001 7.8239999 -0.183 -0.011915473 0.52421838 -0.60293615 0.79904872
27.1 8.0740004 -0.191 0.29601458 -0.33026686 -0.29845756 0.53458184
27.172001 8.1890001 -0.192 0.44585046 -0.20429419 -0.38646072 0.6243962
25.707001 7.8340001 -0.171 0.018187163 0.47947586 -0.72841007 0.8722437
25.455999 7.8449998 -0.168 0.0032863636 0.46772832 -0.74869442 0.88279325
25.282 7.8340001 -0.16500001 0.0067502093 0.47146398 -0.74169892 0.87888628
25.478001 8.0710001 -0.169 0.17383097 -0.26141578 -0.1261788 0.33834377
25.386 8.1300001 -0.168 0.17158544 -0.25064319 -0.11696374 0.32549053
24.434 7.908 -0.154 0.1720833 0.44632399 -0.7384209 0.87981999
25.528 8.441 -0.171 0.40040118 -0.033906851 -0.17857644 0.43972754
25.542999 8.4910002 -0.17200001 0.39874893 -0.032993685 -0.17644742 0.43729049
25.541 8.5799999 -0.17200001 0.36926994 0.010952545 -0.13877371 0.39463702
25.554001 8.6730003 -0.17299999 0.3624419 0.039721828 -0.13120076 0.38749915
25.549 8.7609997 -0.17299999 0.31924987 0.068185329 -0.096438348 0.34039694
25.556999 8.8540001 -0.17399999 0.22143522 0.08866518 -0.04171136 0.24214646
25.582001 8.9530001 -0.17399999 0.18887265 0.095631331 -0.029553294 0.213756
25.426001 8.9879999 -0.17200001 0.15608864 0.17614247 -0.03545621 0.23800625
25.337999 9.0010004 -0.171 0.049252059 0.19420844 -0.022807062 0.20165031
25.495001 9.2379999 -0.175 0.095359556 0.24179541 -0.045255303 0.26383045
25.534 9.3430004 -0.176 0.096344724 0.24404633 -0.046078473 0.26639095
25.351 9.3660002 -0.17299999 0.098247021 0.29807168 -0.07482326 0.32264179
24.584999 9.3909998 -0.163 -0.12162935 0.26403081 -0.073930115 0.29995272
26.982 7.7220001 -0.38299999 -0.03159802 0.52079004 -0.60895717 0.80190372
26.740999 7.744 -0.37900001 -0.0091359597 0.52620715 -0.59183031 0.79198521
25.332001 7.8140001 -0.35100001 0.0021992903 0.49285629 -0.69783819 0.85433614
24.855 7.7529998 -0.34099999 0.09110494 0.49961847 -0.66682482 0.83819693
24.681 7.7420001 -0.33700001 0.11448823 0.49978065 -0.65404928 0.83106482
25.382999 8.0489998 -0.35299999 0.16338794 -0.33309373 -0.19188124 0.41769063
24.367001 7.8959999 -0.33199999 0.16625845 0.45869276 -0.71933842 0.86918855
24.372 7.9829998 -0.333 0.18387271 0.43060812 -0.75669479 0.88984245
24.381001 8.0710001 -0.333 0.20706582 0.3968235 -0.78928041 0.90736359
24.396999 8.1610003 -0.33399999 0.23147053 0.3478713 -0.8274712 0.92698526
24.413 8.2519999 -0.33500001 0.26933262 0.27931273 -0.8581441 0.94178921
24.459 8.3100004 -0.33700001 0.32040313 0.22471222 -0.85236108 0.93790889
25.605 8.8780003 -0.36300001 0.22602803 0.080224238 -0.042893261 0.24364816
25.375 8.8879995 -0.359 0.15612024 0.17551982 -0.035505176 0.23757389
25.416 8.9919996 -0.36000001 0.1568204 0.17233643 -0.034615755 0.23556472
25.367001 9.0640001 -0.36000001 -0.0017343797 0.24685358 -0.04296729 0.25057113
25.412001 9.1700001 -0.361 0.14754823 0.26598853 -0.069002807 0.31190023
25.639999 9.2980003 -0.36700001 0.079674698 0.19306479 -0.024360955 0.21027489
25.457001 9.3219995 -0.36300001 0.15081681 0.26283646 -0.067807794 0.31052634
25.396999 9.3909998 -0.36300001 0.093160205 0.2703692 -0.05836004 0.29186335
24.712999 9.5380001 -0.34999999 -0.078305379 0.37052399 -0.13447773 0.40187564
27.117001 7.6609998 -0.52999997 -0.037503354 0.52114451 -0.60380119 0.7984823
26.941 7.7030001 -0.52600002 -0.016242266 0.5233109 -0.60324311 0.79876173
26.679001 7.7189999 -0.51999998 0.00053640455 0.53325582 -0.54395509 0.76174092
26.455 7.744 -0.514 0.0037760902 0.53334415 -0.54421824 0.76199979
26.216 7.763 -0.50800002 0.043664351 0.53500825 -0.51560456 0.744304
25.979 7.7810001 -0.50199997 0.078130201 0.52978396 -0.55038315 0.76791734
25.75 7.757 -0.49700001 0.058768924 0.52346647 -0.60000044 0.7984181
25.531 7.7779999 -0.491 0.029662127 0.51489651 -0.63843375 0.8207289
25.304001 7.796 -0.486 0.017772896 0.51150537 -0.64877057 0.82635158
25.091999 7.8169999 -0.48100001 0.043939434 0.50619 -0.66272151 0.83508009
24.875 7.835 -0.47499999 0.097362891 0.50071758 -0.66194308 0.83568311
24.683001 7.8590002 -0.47099999 0.13218367 0.4890385 -0.67428416 0.84338027
24.458 7.8720002 -0.465 0.13716094 0.47708791 -0.69917381 0.85747886
24.266001 7.8940001 -0.461 0.12550198 0.47381651 -0.71210009 0.86448795
24.216 7.9200001 -0.46000001 0.124184 0.47448012 -0.71152055 0.86418432
24.122 7.973 -0.458 0.1213346 0.46869868 -0.72467214 0.87152183
24.069 8.04 -0.45699999 0.13229741 0.45143843 -0.75092697 0.88610983
24.049 8.1169996 -0.45699999 0.15472451 0.40652505 -0.80504179 0.91503805
24.076 8.2110004 -0.45899999 0.16818336 0.37395751 -0.8355689 0.9307552
24.003 8.2700005 -0.45699999 0.18924403 0.27930707 -0.90134335 0.96241653
24.136 8.401 -0.46200001 -0.1486104 -0.16632676 -0.073964387 0.23499015
24.23 8.4759998 -0.465 0.29047197 0.17241745 -0.89750612 0.95896763
24.263 8.5740004 -0.46599999 -0.26815557 -0.042628933 -0.098905265 0.2889756
24.299 8.6719999 -0.46799999 -0.31177795 0.0024669394 -0.12766638 0.33691287
24.327999 8.7690001 -0.47 -0.30491185 0.016828137 -0.12048489 0.32828498
24.353001 8.8640003 -0.47099999 -0.28581241 0.037063438 -0.10419762 0.306463
24.379 8.9610004 -0.47299999 -0.23955245 0.072705045 -0.073411167 0.26088426
24.388 9.052 -0.47400001 -0.22086583 0.070750371 -0.06224221 0.24012792
24.403999 9.1009998 -0.47400001 -0.22072129 0.074564956 -0.062429667 0.24119553
24.413 9.1920004 -0.47600001 -0.20676489 0.032963924 -0.053591669 0.21612591
24.292999 9.4090004 -0.47499999 -0.20578317 0.012123195 -0.053944111 0.21308133
27.007999 7.6859999 -0.69400001 0.00035394356 0.53187531 -0.55836695 0.77114534
26.764999 7.6620002 -0.68699998 -3.9871782e-05 0.53392696 -0.53224236 0.75389647
26.503 7.678 -0.67900002 0.006635109 0.53442812 -0.52459586 0.74890471
26.264 7.698 -0.67199999 0.038384888 0.53506017 -0.48615751 0.72395575
26.038 7.7210002 -0.66500002 0.059360072 0.53399009 -0.49594247 0.73118258
25.813999 7.743 -0.65799999 0.04917898 0.5320605 -0.54741275 0.76496255
25.576 7.7600002 -0.65100002 0.019919476 0.52536136 -0.59519941 0.79414338
25.333 7.7729998 -0.64399999 0.012041796 0.52526504 -0.5937115 0.79280621
25.150999 7.7610002 -0.63800001 0.042903349 0.52349055 -0.59947908 0.79703093
24.855 7.756 -0.62900001 0.095209621 0.51488543 -0.61332428 0.8064357
24.684 7.7870002 -0.62400001 0.1123842 0.50038207 -0.65364748 0.83082336
24.471001 7.8049998 -0.61799997 0.11905684 0.49637553 -0.66069257 0.83491188
24.277 7.8270001 -0.61199999 0.10323743 0.49322355 -0.67737019 0.84424984
24.096001 7.8530002 -0.60699999 0.098204881 0.49178773 -0.68294436 0.84729707
23.92 7.8790002 -0.602 0.13736968 0.46676069 -0.71943277 0.86851567
23.747999 7.8639998 -0.59600002 0.17487572 0.44848019 -0.73121023 0.87543386
23.579 7.8899999 -0.59100002 0.21413273 0.41626853 -0.75583827 0.88905782
23.489 7.9429998 -0.58899999 0.24502893 0.38343805 -0.77691126 0.9003638
23.514999 8.0340004 -0.59100002 0.25137863 0.3473815 -0.8130461 0.91918939
23.209999 8.0109997 -0.58200002 0.32430285 0.32782394 -0.76661187 0.89461422
23.332001 8.1350002 -0.58700001 0.30075017 0.28156301 -0.83159995 0.92805541
23.264999 8.1940002 -0.58499998 0.33768338 0.26373997 -0.81102908 0.91725516
23.202999 8.2130003 -0.583 0.36205733 0.22290456 -0.81294155 0.91741264
23.209 8.2980003 -0.58499998 0.35660857 0.18472859 -0.83859247 0.92980194
23.232 8.3879995 -0.58600003 0.3542462 0.15203726 -0.85362577 0.93663371
23.174 8.4490004 -0.58499998 0.40326989 0.12652667 -0.80932307 0.91303855
23.179001 8.5340004 -0.58600003 0.42672664 0.11046343 -0.78305399 0.89859414
23.236 8.6379995 -0.58899999 0.43336543 0.05959383 -0.782493 0.89646655
23.291 8.7419996 -0.59200001 -0.32570761 0.059576601 -0.14051223 0.35969225
23.281 8.7799997 -0.59200001 0.45337263 0.011873415 -0.75132591 0.87759805
23.325001 8.8800001 -0.59399998 0.40783712 -0.033123955 -0.80949152 0.90703076
23.514999 9.0369997 -0.602 -0.21784592 0.22853358 -0.10369879 0.33232197
23.591 9.151 -0.60600001 -0.19369465 0.28453979 -0.12076426 0.36478007
23.608999 9.243 -0.60699999 -0.17135188 0.3615863 -0.16957572 0.43458259
27.135 7.678 -0.88300002 0.01707696 0.53281063 -0.55545211 0.76987392
27.006001 7.7319999 -0.87900001 0.013725918 0.53403032 -0.54347998 0.76206774
27.056 7.8390002 -0.88200003 0.022728026 0.5342477 -0.5484038 0.76595294
27.044001 7.882 -0.88200003 0.023188982 0.53440815 -0.54862159 0.76623458
26.219999 7.73 -0.85000002 0.030223198 0.53525138 -0.50841796 0.73884797
25.933001 7.7340002 -0.83899999 0.032213911 0.53210169 -0.55242831 0.76768935
25.712999 7.756 -0.83099997 0.029508002 0.52962351 -0.5707401 0.77917653
25.49 7.776 -0.82300001 0.015164405 0.52823889 -0.57862163 0.78362572
25.268999 7.7950001 -0.815 0.016942538 0.52728409 -0.58276641 0.78608668
25.063 7.8179998 -0.80800003 0.06310147 0.52705222 -0.57260019 0.78079242
24.853001 7.7950001 -0.80000001 0.085677616 0.52438873 -0.57152921 0.78036523
24.632 7.8109999 -0.792 0.11216274 0.50872505 -0.62584132 0.81428432
24.427999 7.8299999 -0.78500003 0.096923284 0.50534481 -0.64598954 0.82587528
24.216999 7.8460002 -0.77700001 0.10436409 0.50149643 -0.653624 0.83043051
24.033001 7.8699999 -0.77100003 0.11193911 0.49389228 -0.67105842 0.8407017
24.077999 7.9689999 -0.77399999 0.11193563 0.48508269 -0.69395232 0.85405189
23.705 7.927 -0.75999999 0.20119399 0.43524584 -0.73586816 0.87830514
23.434999 7.8779998 -0.74900001 0.25903338 0.42584953 -0.69666338 0.8566131
23.308001 7.9169998 -0.745 0.29408479 0.38706407 -0.72320342 0.8713941
23.177 7.9530001 -0.741 0.33355853 0.3497166 -0.7279498 0.87376994
23.143999 8.0229998 -0.74000001 0.36689493 0.31352544 -0.7278465 0.87331015
23.139999 8.1029997 -0.741 0.38811651 0.28759488 -0.72567737 0.87175274
23.15 8.1890001 -0.74299997 0.40444449 0.25402021 -0.7341395 0.87582099
23.094 8.2510004 -0.741 0.48925635 0.17784654 -0.60588312 0.79880881
23.062 8.3210001 -0.741 0.49616191 0.14725547 -0.61243623 0.80183476
23.104 8.3769999 -0.74299997 0.48923206 0.15647963 -0.63030201 0.81308949
23.135 8.4709997 -0.74599999 0.48984259 0.12846544 -0.65007776 0.824045
23.115999 8.5469999 -0.74599999 0.50754178 0.074387267 -0.61415476 0.80019879
23.093 8.6210003 -0.74599999 0.52087158 0.050185248 -0.53900981 0.75123721
23.080999 8.6990004 -0.74699998 0.52128178 0.033386447 -0.53725684 0.74932921
23.083 8.783 -0.74800003 0.52083951 -0.0060831942 -0.51230395 0.73059303
23.077999 8.8640003 -0.74900001 0.51836717 -0.028122086 -0.51536757 0.73150468
23.118 8.9209995 -0.75099999 0.5169856 -0.037719164 -0.51578933 0.73125607
23.127001 9.0080004 -0.75300002 0.51243562 -0.062539414 -0.51854348 0.73170263
23.125999 9.092 -0.75400001 0.51218987 -0.06403403 -0.5158186 0.7297312
23.153 9.1859999 -0.75599998 0.50449288 -0.096661225 -0.50664496 0.72148848
23.176001 9.2799997 -0.75800002 0.49925396 -0.11376083 -0.50565565 0.71964133
23.216999 9.3809996 -0.76099998 0.48790383 -0.14498076 -0.48927471 0.70601654
27.271 7.697 -1.057 0.061106235 0.53326309 -0.53833294 0.76020122
27.016001 7.717 -1.046 -0.011404611 0.532049 -0.44579208 0.69421667
26.565001 7.6789999 -1.026 -0.018029604 0.53181762 -0.45592886 0.70073259
26.347 7.7059999 -1.017 0.0054918677 0.53473687 -0.48125225 0.71942854
26.101 7.6789999 -1.007 0.0051388703 0.53298497 -0.53914881 0.75814301
25.872 7.6999998 -0.99699998 0.004095424 0.52436793 -0.59824133 0.79553199
25.636999 7.7179999 -0.98699999 0.029831486 0.52476752 -0.59658122 0.79509747
25.42 7.7399998 -0.97799999 0.033221543 0.53269625 -0.53750914 0.75748605
25.179001 7.7540002 -0.96799999 0.029302793 0.53395694 -0.50931937 0.73849505
24.934999 7.7649999 -0.958 0.063791521 0.52447879 -0.58468252 0.78803623
24.739 7.789 -0.94999999 0.077931486 0.51278943 -0.62985855 0.81593388
24.524 7.8060002 -0.94099998 0.099821113 0.50001287 -0.66046029 0.83437693
24.337 7.789 -0.93300003 0.10842727 0.49428752 -0.67141342 0.84075719
24.114 7.802 -0.92400002 0.099236667 0.49985838 -0.66005647 0.83389497
24.103001 7.882 -0.92400002 0.097232781 0.50488454 -0.64672458 0.82620537
24.110001 7.9679999 -0.926 0.092501841 0.50619698 -0.64614058 0.82600826
24.1 8.0489998 -0.92699999 0.089335173 0.50154477 -0.66255569 0.83576787
24.035 8.1110001 -0.92500001 0.11394444 0.49605325 -0.66649681 0.83861202
23.247 7.928 -0.889 0.33091989 0.38023269 -0.68263561 0.84857309
23.167 7.941 -0.88599998 0.36565498 0.36784422 -0.63919735 0.82315624
23.134001 8.0109997 -0.88499999 0.41650337 0.33210856 -0.57060087 0.78061289
23.174999 8.1070004 -0.88800001 0.38834408 0.32395157 -0.67627895 0.84445781
23.113001 8.1669998 -0.88700002 0.46134958 0.2507388 -0.59996569 0.79729056
23.097 8.243 -0.88700002 0.49868435 0.18632618 -0.51081491 0.73779088
23.021999 8.2980003 -0.88499999 0.47584033 0.17006925 -0.66001445 0.83124405
23.018999 8.3780003 -0.88599998 0.47681573 0.1474921 -0.67427802 0.83890283
23.007 8.415 -0.88599998 0.47637799 0.11342889 -0.69313776 0.84867078
23.061001 8.5170002 -0.88999999 0.48846838 0.085052028 -0.67323035 0.83610666
23.083 8.6070004 -0.89200002 0.49685168 0.050033972 -0.65648544 0.82482612
23.062 8.6820002 -0.89200002 0.497502 0.011704203 -0.65355581 0.82145017
23.27 8.8430004 -0.90399998 0.50808543 -0.0089947134 -0.38619074 0.63825935
23.080999 8.8549995 -0.89600003 0.48792833 -0.026391823 -0.67078882 0.82989651
23.080999 8.9379997 -0.89700001 0.49335113 -0.059556365 -0.6374957 0.80829638
23.110001 8.9910002 -0.89899999 0.4930613 -0.075693637 -0.62571979 0.80022758
23.117001 9.0780001 -0.90100002 0.49158746 -0.10072068 -0.60451126 0.78564417
23.235001 9.2080002 -0.90799999 0.49385175 -0.1302889 -0.50170392 0.71594101
23.221001 9.2869997 -0.90899998 0.48439553 -0.14938045 -0.54195666 0.74207181
23.455 9.4659996 -0.921 -0.33071896 0.37987638 -0.40366611 0.6454668
23.249001 9.4680004 -0.91299999 0.47688881 -0.16846436 -0.52771962 0.7309522
27.077 7.6739998 -1.21 -0.027459286 0.50912678 -0.34516189 0.61571163
26.716999 7.6620002 -1.192 -0.11177864 0.49816287 -0.36607388 0.62822831
26.197001 7.691 -1.1670001 -0.025303561 0.53113592 -0.53823525 0.75659955
26.129 7.7600002 -1.165 -0.031295903 0.52927619 -0.55385858 0.7667281
25.868999 7.7709999 -1.153 -0.065818086 0.50423741 -0.6468882 0.82283151
25.568001 7.724 -1.138 0.004130289 0.51851141 -0.62208003 0.80984855
25.313 7.7340002 -1.125 0.051172189 0.53287184 -0.51797402 0.74489468
25.128 7.7639999 -1.117 0.017024234 0.53291446 -0.46598634 0.7081179
24.927999 7.7870002 -1.108 0.045373149 0.52937019 -0.56049252 0.7722975
24.690001 7.7979999 -1.097 0.057714034 0.51519895 -0.62791228 0.81426942
24.469999 7.8130002 -1.086 0.099047177 0.49766231 -0.66721034 0.83824086
24.228001 7.8200002 -1.075 0.11704353 0.49007472 -0.677894 0.84463763
24.07 7.8099999 -1.067 0.11642094 0.49068427 -0.67629081 0.8436197
23.783001 7.7989998 -1.053 0.16995783 0.49115208 -0.63247019 0.81861746
23.558001 7.8070002 -1.043 0.2238636 0.47116733 -0.62799048 0.81638569
23.457001 7.8559999 -1.039 0.26901606 0.44380137 -0.63936657 0.82347971
23.242001 7.8649998 -1.028 0.35305053 0.40143597 -0.5649209 0.7777732
23.204 7.9330001 -1.028 0.38295606 0.3721211 -0.56702548 0.77887565
23.181999 8.007 -1.028 0.35667378 0.34220958 -0.70472795 0.86079323
23.162001 8.0410004 -1.028 0.34247386 0.33766967 -0.73227346 0.87608993
23.124001 8.1090002 -1.027 0.37754053 0.30142364 -0.72644049 0.87241554
23.104 8.184 -1.027 0.4147042 0.26645744 -0.70327419 0.85882115
23.08 8.257 -1.027 0.4344337 0.20210557 -0.72662497 0.870381
23.08 8.3389997 -1.029 0.44918057 0.1872395 -0.70965469 0.86048335
23.082001 8.4219999 -1.03 0.45760527 0.15420538 -0.71402121 0.86197919
23.076 8.5019999 -1.031 0.48244077 0.088435501 -0.68759722 0.84460634
23.080999 8.5450001 -1.0319999 0.48473635 0.061855972 -0.68777919 0.84370357
23.077999 8.6260004 -1.034 0.48624966 0.048107579 -0.68549299 0.84181571
23.072001 8.7069998 -1.035 0.48984051 0.022792239 -0.67638934 0.83544344
23.072001 8.79 -1.036 0.48957226 -0.035735358 -0.66279173 0.82477325
23.082001 8.8769999 -1.038 0.49132389 -0.050105065 -0.65014052 0.81645107
23.094999 8.9650002 -1.04 0.4814069 -0.10236363 -0.64123297 0.80833817
23.093 9.0480003 -1.0420001 0.47268093 -0.13235003 -0.63617539 0.80353153
23.146 9.1529999 -1.046 0.46457097 -0.14201543 -0.64909399 0.81075126
23.200001 9.2159996 -1.05 0.45391095 -0.17200786 -0.64067793 0.8037973
23.443001 9.3990002 -1.0650001 0.43058771 -0.24459514 -0.55702537 0.74532533
23.280001 9.4180002 -1.057 -0.30252871 0.36008039 -0.29599518 0.55569297
26.775 7.6009998 -1.3710001 -0.23224722 0.40807581 -0.2854673 0.54950541
26.629999 7.651 -1.364 -0.23055346 0.42658913 -0.31898746 0.58041894
26.263 7.6350002 -1.3430001 -0.098533019 0.51639491 -0.55468059 0.76422709
26.181 7.6999998 -1.34 -0.097251929 0.5186556 -0.53891134 0.754246
26.141001 7.7779999 -1.339 -0.11796087 0.51193655 -0.55252588 0.7624163
26.419001 7.9510002 -1.357 -0.069112211 0.50020349 -0.33589768 0.60647118
26.344 8.0190001 -1.354 -0.086462379 0.49828354 -0.34071442 0.60979384
26.233999 8.0299997 -1.348 -0.056839831 0.51277566 -0.36871576 0.63413012
26.485001 8.198 -1.365 -0.12543869 0.38886121 -0.17488703 0.44444725
26.507 8.2959995 -1.367 -0.10655068 0.33721665 -0.11903501 0.37314534
25.906 8.198 -1.3329999 -0.10930926 0.51751387 -0.45852321 0.70000905
25.552999 8.1750002 -1.314 0.14655788 0.45758268 -0.25868988 0.5456937
24.254 7.8449998 -1.238 0.10610662 0.49903098 -0.65943617 0.83375448
23.906 7.816 -1.219 0.1499812 0.49414462 -0.64278364 0.82452661
23.725 7.7979999 -1.209 0.18973374 0.48771176 -0.61995023 0.81129521
23.454 7.7909999 -1.194 0.26943853 0.46198529 -0.56205922 0.77584672
23.344 7.836 -1.189 0.31099111 0.43906 -0.53202146 0.75666106
23.274 7.8940001 -1.187 0.30005062 0.41442326 -0.66245717 0.83703434
23.259001 7.9699998 -1.187 0.32449168 0.37984568 -0.69382262 0.85496634
23.128 8.007 -1.181 0.35106713 0.30792719 -0.75596344 0.88856512
23.044001 8.059 -1.177 0.3791281 0.25379223 -0.77061993 0.89554656
23.013 8.1289997 -1.177 0.3953636 0.22859493 -0.76838923 0.89386243
23.011 8.1700001 -1.178 0.40920255 0.2324748 -0.74520159 0.88137203
22.995001 8.3269997 -1.1799999 0.44566032 0.15995748 -0.73341465 0.87298143
22.983999 8.4049997 -1.181 0.46129653 0.14012876 -0.71388596 0.86143118
23.066999 8.6000004 -1.189 0.48900288 0.035553474 -0.6791051 0.83759868
23.091 8.691 -1.192 0.49588305 0.0050243661 -0.65739989 0.82346821
23.079 8.7279997 -1.192 0.49524018 -0.01065046 -0.65552342 0.82163692
23.035999 8.7950001 -1.191 0.48999032 -0.037989277 -0.66066468 0.8234145
26.669001 7.6479998 -1.513 -0.2731694 0.32591423 -0.22015545 0.47886327
26.437 7.671 -1.5 -0.20712318 0.44897547 -0.33871788 0.59934026
26.256001 7.7080002 -1.49 -0.237679 0.46131745 -0.51196748 0.72898275
26.188 7.7779999 -1.487 -0.2347399 0.44196934 -0.63283873 0.80679893
23.973 7.8200002 -1.357 0.14419256 0.49103567 -0.6570186 0.83281505
23.809999 7.8499999 -1.348 0.18037468 0.49321103 -0.61266935 0.80694228
23.381001 7.8299999 -1.323 0.30643779 0.4435122 -0.50461972 0.73840928
23.322001 7.8920002 -1.3200001 0.28106737 0.42377928 -0.67117304 0.84205759
23.327999 7.9759998 -1.322 0.3141773 0.40272033 -0.66559696 0.83899367
23.665001 8.1739998 -1.346 0.30378738 0.4470031 -0.51554775 0.74691904
23.594 8.2329998 -1.3430001 0.37981543 0.37953028 -0.55350292 0.77114755
23.552999 8.302 -1.342 0.43425426 0.2926614 -0.38062951 0.64738417
23.337 8.3079996 -1.33 0.41732109 0.25742891 -0.70884943 0.86191303
23.190001 8.2959995 -1.321 0.43119109 0.23248345 -0.70729411 0.86037159
23.191999 8.3789997 -1.323 0.46491832 0.17773554 -0.68240178 0.84463668
23.181999 8.4580002 -1.324 0.48401839 0.13164829 -0.66518468 0.83311206
23.195 8.5459995 -1.326 0.50260288 0.053748388 -0.63782966 0.81383365
23.176001 8.6210003 -1.327 0.5083136 0.011749161 -0.61574388 0.79853696
23.181999 8.7069998 -1.329 0.5052349 -0.020585261 -0.61736429 0.79801297
23.202999 8.7980003 -1.332 0.50264925 -0.055523708 -0.60533804 0.78877962
23.188999 8.8339996 -1.332 0.49692273 -0.071943775 -0.61505824 0.79398036
23.195 8.9200001 -1.335 0.47450051 -0.107845 -0.6572215 0.81775385
23.198 9.0050001 -1.337 0.45286843 -0.1486288 -0.67374665 0.82529688
23.382 9.1610003 -1.351 0.44334987 -0.19244146 -0.64093029 0.80273563
23.504999 9.2950001 -1.3609999 -0.34151343 0.34556872 -0.34728885 0.5972091
23.386999 9.3330002 -1.355 -0.29919511 0.3669275 -0.30253848 0.56185675
23.424 9.434 -1.359 -0.18623507 0.44248748 -0.28981063 0.56077522
25.808001 6.8049998 -1.6339999 0.45967665 -0.19739103 -0.5843206 0.76921809
25.903999 6.9169998 -1.643 0.43088534 -0.18841238 -0.31019109 0.5633648
25.965 7.0209999 -1.648 0.34461182 -0.18667096 -0.18392843 0.43293536
26.006001 7.0760002 -1.652 0.30403703 -0.19411007 -0.15208682 0.39146855
26.033001 7.171 -1.656 0.32859373 -0.23132859 -0.20329636 0.45035118
26.052999 7.2649999 -1.659 0.33439311 -0.21093932 -0.19235936 0.43967748
26.052999 7.3530002 -1.66 0.28728965 -0.20783679 -0.14895922 0.38460413
26.08 7.4489999 -1.664 0.26432434 -0.17918196 -0.11553916 0.33959216
26.118 7.5479999 -1.668 0.29365885 -0.17236644 -0.13193402 0.36517432
26.155001 7.6479998 -1.673 0.34905961 -0.16441332 -0.17550814 0.42388377
26.219999 7.7119999 -1.678 0.31774142 -0.14779046 -0.13786077 0.376573
26.285 7.8210001 -1.6849999 0.22969076 -0.055711709 -0.052018255 0.24200732
26.379 8.0290003 -1.6950001 -0.067393348 0.24768835 -0.054076374 0.26232734
26.438999 8.1379995 -1.701 -0.045885086 0.20269126 -0.031422049 0.21018213
26.511 8.2519999 -1.7079999 -0.063194484 0.22561592 -0.042877793 0.23819023
23.837999 7.7940001 -1.523 0.16667743 0.48590484 -0.65192592 0.82999539
23.323999 7.789 -1.49 0.21784566 0.47118396 -0.63529205 0.82040662
23.316999 7.868 -1.4910001 0.26847029 0.43784052 -0.65604573 0.83317268
23.329 7.9130001 -1.493 0.27847633 0.44232446 -0.62623459 0.81570202
24.025 9.2150002 -1.568 0.30465493 -0.19612128 -0.15828347 0.39538822
23.893999 9.25 -1.561 -0.19242394 0.47659495 -0.38962376 0.64496231
23.841999 9.2740002 -1.558 -0.19385748 0.47775272 -0.39735949 0.65094006
23.495001 9.224 -1.535 -0.35174116 0.32987815 -0.34229249 0.59135908
23.399 9.2709999 -1.53 -0.33652824 0.32506496 -0.30244315 0.55712688
23.382999 9.3500004 -1.531 -0.24247147 0.39600593 -0.27098691 0.53763092
23.775999 7.7940001 -1.642 0.15746009 0.46404007 -0.71148175 0.86390579
23.642 7.8319998 -1.6339999 0.2004943 0.49125788 -0.58611959 0.7906127
23.513 7.8720002 -1.626 0.26696104 0.46148741 -0.42097861 0.67930979
23.503 7.9510002 -1.627 0.29447058 0.38345361 -0.26841921 0.5529905
23.816999 9.243 -1.681 0.33483386 -0.14933662 -0.15532419 0.39817175
23.665001 9.2700005 -1.6720001 -0.061682627 0.42254549 -0.18962765 0.46723452
23.594999 9.2849998 -1.6670001 -0.12679596 0.42200413 -0.21471837 0.49017212
23.535999 9.3479996 -1.665 -0.11516849 0.4544445 -0.25737953 0.53481567
22.329 7.6440001 -1.692 -0.31795216 0.14492114 -0.15058503 0.38048857
22.325001 7.7210002 -1.694 -0.31159574 0.14129533 -0.14318359 0.37088788
22.355 7.8099999 -1.699 -0.24229895 0.1118248 -0.082085848 0.27919823
22.403 7.8670001 -1.704 -0.22012882 0.097086698 -0.066263974 0.24954647
22.437 7.9569998 -1.709 -0.25451314 0.10344657 -0.088485301 0.28863087
22.468 8.0480003 -1.714 -0.26803827 0.10039051 -0.097414285 0.30234468
22.489 8.1350002 -1.7180001 -0.28008571 0.090072483 -0.10472652 0.31229585
22.511 8.2229996 -1.722 -0.30450907 0.091714442 -0.1249364 0.34168175
22.541 8.3140001 -1.727 -0.31738511 0.08919701 -0.13620567 0.35670912
22.584 8.4110003 -1.732 -0.3304913 0.080479696 -0.14756387 0.37077835
22.612 8.4619999 -1.7359999 -0.34727964 0.094222516 -0.16751066 0.39691415
22.65 8.5570002 -1.742 0.4075312 -0.034657296 -0.81014496 0.90753382
22.653 8.6400003 -1.744 -0.37369624 0.14842547 -0.21582279 0.45635346
22.672001 8.7290001 -1.748 -0.36669219 0.16265042 -0.21199876 0.45371994
22.665001 8.8079996 -1.75 -0.36420137 0.16282302 -0.20855033 0.45016354
22.677999 8.8950005 -1.753 -0.33251894 0.15210059 -0.16631773 0.40170264
22.671 8.974 -1.755 -0.31635088 0.17214733 -0.15700611 0.3928912
22.702999 9.0279999 -1.7589999 -0.28823224 0.16425623 -0.12823042 0.35566977
22.752001 9.1309996 -1.766 -0.29460964 0.14858569 -0.12842375 0.35406947
22.788 9.2279997 -1.772 -0.28509718 0.13841569 -0.11745495 0.33798665
23.041 9.415 -1.796 -0.18005627 0.17577009 -0.062315524 0.25922695
23.268 9.592 -1.818 0.02253662 0.36612529 -0.1196214 0.38583016
23.150999 9.6300001 -1.811 -0.033219889 0.23200148 -0.040012032 0.23775873
22.938 9.71 -1.7970001 -0.20661114 -0.0016013458 -0.055569589 0.21395959
