# .PCD v0.7 - Point Cloud Data file format
VERSION 0.7
FIELDS x y z normal_x normal_y normal_z curvature
SIZE 4 4 4 4 4 4 4
TYPE F F F F F F F
COUNT 1 1 1 1 1 1 1
WIDTH 660
HEIGHT 1
VIEWPOINT 0 0 0 1 0 0 0
POINTS 660
DATA ascii
-12.15 9.1730003 -0.73900002 0.019696988 -0.27354014 -0.08796069 0.28800914
-12.184 8.8140001 -0.72799999 -0.022266664 0.39248925 -0.81787372 0.90744752
-12.278 8.8240004 -0.73299998 -0.026113303 0.38673645 -0.82443678 0.91101205
-12.367 8.8290005 -0.73699999 -0.021142967 0.37973157 -0.83295733 0.91567516
-12.428 8.8129997 -0.74000001 -0.0087234806 0.38321763 -0.8297025 0.91396832
-12.475 8.7880001 -0.741 -0.01026717 0.38440025 -0.8282634 0.91317534
-12.524 8.7629995 -0.74299997 -0.011910877 0.38585338 -0.82650471 0.91221416
-12.587 8.7489996 -0.74599999 -0.017774586 0.38072389 -0.83204883 0.91518956
-12.627 8.7469997 -0.74800003 -0.019957155 0.37950194 -0.83327961 0.91584659
-12.66 8.7110004 -0.74800003 -0.023602689 0.37834492 -0.83424401 0.91633236
-11.224 9.5670004 -0.81300002 0.3282418 0.054095857 -0.12174773 0.35424787
-11.185 9.4729996 -0.80599999 0.33032557 0.045098208 -0.12284353 0.3553018
-11.142 9.3760004 -0.80000001 0.3256321 0.019484894 -0.11776727 0.34682137
-11.144 9.3179998 -0.79699999 0.3213408 0.0022923872 -0.11437967 0.34109804
-11.127 9.2449999 -0.79299998 0.30851644 -0.033527929 -0.10687277 0.32821989
-11.128 9.1870003 -0.79100001 0.29909894 -0.057828233 -0.10329494 0.32167393
-11.378 8.6929998 -0.78299999 0.1361136 -0.29903287 -0.12786314 0.35255715
-11.542 8.6479998 -0.79000002 0.085372888 -0.33824795 -0.14751118 0.37876084
-11.59 8.6549997 -0.79299998 0.075797439 -0.34734192 -0.15449798 0.3876355
-11.649 8.6420002 -0.796 0.067214817 -0.35907051 -0.16513589 0.40089813
-11.899 8.5979996 -0.80800003 -0.037409451 0.42272112 -0.77434957 0.88301182
-11.968 8.5909996 -0.81099999 -0.03186629 0.43087718 -0.76246226 0.87636709
-11.21 9.783 -0.89499998 0.38416764 0.10999227 -0.18938956 0.44221205
-11.221 9.7309999 -0.89300001 0.38241848 0.094444834 -0.18314704 0.43440369
-11.212 9.6619997 -0.889 0.37391245 0.067106366 -0.16805133 0.41539747
-11.187 9.5780001 -0.884 0.3629733 0.042836759 -0.15363392 0.39646938
-11.18 9.5120001 -0.88 0.35249731 0.038708102 -0.14282623 0.38229832
-11.207 9.4750004 -0.88 0.33526269 0.042334665 -0.12697619 0.36099342
-11.177 9.4200001 -0.87599999 0.33630484 0.025382034 -0.12712345 0.36042416
-11.155 9.3409996 -0.87099999 0.32963136 -0.010285708 -0.12201363 0.35163894
-11.157 9.283 -0.86799997 0.32054266 -0.031322133 -0.11626324 0.34241176
-11.143 9.2130003 -0.86400002 0.3121762 -0.063109443 -0.1144422 0.33842841
-11.152 9.1029997 -0.85900003 0.28750858 -0.10577086 -0.1061995 0.32423294
-11.148 9.0419998 -0.85600001 0.28627819 -0.12055953 -0.1098938 0.32949424
-11.14 8.7770004 -0.84399998 0.24193819 -0.2315605 -0.13288602 0.36029577
-11.199 8.7670002 -0.84600002 0.21940592 -0.24016978 -0.12443715 0.3482888
-11.223 8.7290001 -0.84600002 0.20938036 -0.27366459 -0.14253891 0.37289381
-11.254 8.7250004 -0.84799999 0.19710974 -0.28063858 -0.14106631 0.37082335
-11.301 8.7040005 -0.85000002 0.16518264 -0.2924138 -0.13447681 0.3617667
-11.405 8.6700001 -0.85399997 0.13201311 -0.3256585 -0.14964795 0.3819364
-11.462 8.6569996 -0.85699999 0.11126899 -0.33815098 -0.15457186 0.38809708
-11.764 8.6260004 -0.87300003 -0.046680681 0.40376374 -0.79968476 0.89705068
-11.884 8.6000004 -0.87900001 -0.040929742 0.42377666 -0.77215004 0.88174689
-13.172 8.4680004 -0.95200002 -0.020468723 0.44900972 -0.73323596 0.86003703
-11.144 9.8439999 -0.99199998 0.38834429 0.10364789 -0.19262531 0.44571143
-11.083 9.7279997 -0.98199999 0.40499792 0.10644335 -0.2158764 0.47112221
-11.04 8.7180004 -0.92699999 0.27807623 -0.25336534 -0.17534354 0.41504908
-11.052 8.6709995 -0.926 0.26539668 -0.27837202 -0.18546814 0.4269951
-11.096 8.6499996 -0.92799997 0.25129816 -0.29344255 -0.18776929 0.42955396
-11.145 8.632 -0.93000001 0.23011617 -0.31298307 -0.19063112 0.43272632
-11.204 8.6219997 -0.93300003 0.20687203 -0.32646331 -0.18837428 0.42995253
-11.653 8.5380001 -0.958 -0.062906295 0.43367535 -0.75106764 0.86955971
-12.466 8.4320002 -1.006 -0.037270658 0.45545819 -0.71668613 0.8499825
-13.27 8.3830004 -1.058 -0.013643711 0.46605524 -0.6980207 0.83942032
-10.973 9.7690001 -1.062 0.41265342 0.11677295 -0.23052698 0.48688957
-10.926 8.6739998 -0.99800003 0.30638337 -0.25044683 -0.19896951 0.44292578
-10.924 8.6440001 -0.99699998 0.30380327 -0.25520906 -0.200066 0.44435853
-10.959 8.6160002 -0.99699998 0.28661284 -0.27971885 -0.20540065 0.45008776
-11.011 8.6009998 -1 0.27004847 -0.29882532 -0.20883799 0.4536916
-11.073 8.5930004 -1.0039999 0.2525357 -0.32243535 -0.21888348 0.46438003
-11.572 8.4949999 -1.033 -0.079068057 0.44856039 -0.71810746 0.85037434
-11.861 8.4510002 -1.051 -0.042892773 0.46538213 -0.69282466 0.83571905
-12.394 8.283 -1.08 -0.043049842 0.47026125 -0.68057168 0.82835782
-13.309 8.3009996 -1.147 -0.012246508 0.48035583 -0.66036701 0.81668615
-13.303 8.2399998 -1.1440001 -0.012968828 0.48549429 -0.64382648 0.80646479
-10.723 9.2709999 -1.102 0.40677437 -0.037981559 -0.20983198 0.45927927
-10.74 9.2270002 -1.1 0.40366071 -0.054095812 -0.20886603 0.45770442
-11.825 8.4189997 -1.133 -0.045325674 0.4727973 -0.67321908 0.82390267
-12.927 8.2880001 -1.21 -0.035811674 0.48917371 -0.62511373 0.79456943
-13.102 8.2849998 -1.224 -0.030871255 0.48776942 -0.63230592 0.79917634
-13.268 8.2740002 -1.2359999 -0.018469412 0.49071059 -0.62434953 0.7943238
-13.328 8.2530003 -1.24 -0.013614644 0.4931868 -0.61519998 0.78859979
-13.605 8.2779999 -1.263 -0.037880767 0.50417036 -0.46304432 0.68558937
-10.881 9.8929996 -1.244 0.42421326 0.21438679 -0.31428054 0.56981653
-10.847 9.8000002 -1.2359999 0.44047841 0.18947612 -0.32837442 0.58116454
-10.82 9.7139997 -1.228 0.45055893 0.15037818 -0.32050484 0.57300991
-10.807 9.6420002 -1.222 0.45316461 0.13025075 -0.31367534 0.56631762
-10.796 9.5710001 -1.217 0.45662189 0.10685268 -0.30963326 0.56195533
-10.778 9.4949999 -1.211 0.45613474 0.067032754 -0.29460484 0.54712367
-10.751 9.441 -1.205 0.45368591 0.049036801 -0.28586322 0.53847313
-10.747 9.3190002 -1.197 0.45378786 0.00070748013 -0.28414017 0.53540599
-10.747 9.2600002 -1.193 0.4500421 -0.02962826 -0.28053084 0.53114337
-10.735 9.1920004 -1.188 0.44376624 -0.056985054 -0.27504462 0.52519077
-10.74 9.1370001 -1.1849999 0.43999007 -0.081011951 -0.27643165 0.52589792
-10.735 9.0749998 -1.1799999 0.41980806 -0.11144005 -0.25383803 0.50308192
-10.731 9.0430002 -1.178 0.41529185 -0.11629973 -0.24868125 0.4978306
-10.72 8.9759998 -1.173 0.40177184 -0.13939831 -0.23967081 0.48815429
-10.729 8.927 -1.171 0.39369008 -0.16071552 -0.24051374 0.4885368
-10.733 8.8730001 -1.168 0.38095981 -0.18677551 -0.23997548 0.4874461
-10.741 8.823 -1.165 0.36350179 -0.21063296 -0.23416048 0.48096871
-10.741 8.7670002 -1.1619999 0.35596946 -0.22841457 -0.23912758 0.4858698
-10.762 8.7279997 -1.161 0.3497695 -0.24855857 -0.24982116 0.49651855
-10.769 8.6780005 -1.158 0.33936161 -0.26947063 -0.25744164 0.5040406
-10.764 8.6459999 -1.156 0.32650292 -0.26103419 -0.23133692 0.47776538
-10.782 8.6049995 -1.155 0.32348961 -0.28257445 -0.25019413 0.49708244
-10.82 8.5790005 -1.156 0.31977811 -0.30906019 -0.27841485 0.52468187
-10.865 8.5600004 -1.158 0.31157801 -0.3290686 -0.29651976 0.54156345
-10.903 8.5349998 -1.16 0.29766676 -0.34313348 -0.29876956 0.54369968
-10.961 8.5249996 -1.164 0.28544042 -0.35550892 -0.30268389 0.54724801
-11.007 8.5050001 -1.166 0.26165834 -0.37605771 -0.30863512 0.55239493
-11.057 8.5150003 -1.171 0.25431669 -0.38371941 -0.31436002 0.5574404
-11.107 8.4989996 -1.173 0.24140538 -0.39465573 -0.32041675 0.56275803
-11.159 8.4829998 -1.177 -0.21542957 0.41762182 -0.68180346 0.82805425
-11.208 8.4650002 -1.179 -0.19449697 0.42689663 -0.68386465 0.8293013
-11.266 8.4530001 -1.183 -0.17661557 0.43708509 -0.67817163 0.82592565
-11.317 8.4359999 -1.186 -0.15910287 0.44571939 -0.67369407 0.82331234
-11.383 8.4289999 -1.191 -0.13924894 0.45403343 -0.6698575 0.82112467
-11.44 8.4429998 -1.196 -0.12699296 0.45693967 -0.67222595 0.82268393
-11.494 8.427 -1.2 -0.10665005 0.46206206 -0.67296332 0.82325894
-11.543 8.408 -1.202 -0.093637295 0.47267464 -0.65108037 0.80999684
-11.606 8.3979998 -1.207 -0.081105933 0.47426772 -0.6538192 0.81178051
-11.658 8.3800001 -1.21 -0.073277801 0.47764954 -0.64743471 0.80789262
-11.73 8.3760004 -1.215 -0.058894075 0.48005357 -0.64670551 0.80755675
-11.795 8.3660002 -1.22 -0.052549094 0.48371309 -0.63717556 0.80170602
-11.853 8.3509998 -1.224 -0.047992051 0.48100284 -0.64797628 0.80841839
-11.89 8.3500004 -1.227 -0.047229707 0.48000687 -0.65144604 0.8105672
-11.972 8.3509998 -1.233 -0.044908896 0.47913042 -0.65496361 0.81274849
-12.029 8.335 -1.237 -0.043885477 0.47952229 -0.65407085 0.81220454
-12.093 8.323 -1.242 -0.044135645 0.47947356 -0.6541847 0.81228101
-12.134 8.2950001 -1.243 -0.044706199 0.48330364 -0.64158946 0.80449867
-12.213 8.2919998 -1.25 -0.047876637 0.48274004 -0.64246374 0.80504024
-12.264 8.2700005 -1.253 -0.045432415 0.48085058 -0.64943212 0.80934757
-12.353 8.302 -1.262 -0.034886386 0.4903864 -0.61936927 0.79076809
-12.407 8.2819996 -1.265 -0.031777255 0.49384642 -0.60543913 0.7819531
-12.476 8.2720003 -1.27 -0.030065281 0.49456984 -0.60279489 0.78029794
-12.563 8.2729998 -1.277 -0.031630799 0.49448988 -0.60289699 0.78038812
-12.599 8.2399998 -1.278 -0.035411961 0.49375162 -0.60474283 0.78151041
-12.704 8.2510004 -1.288 -0.041657936 0.49150193 -0.61272949 0.7866047
-12.775 8.2399998 -1.293 -0.037181135 0.48904097 -0.62451386 0.79407877
-12.826 8.2449999 -1.2970001 -0.037489496 0.49018091 -0.61988491 0.79116374
-12.901 8.2349997 -1.303 -0.039988194 0.48973131 -0.62093133 0.79182798
-13.047 8.2130003 -1.314 -0.035676245 0.48709309 -0.63266259 0.79924613
-13.616 8.1879997 -1.36 -0.046149153 0.50370318 -0.47231221 0.69204438
-10.851 9.8540001 -1.33 0.43297037 0.2488841 -0.38955322 0.63337064
-10.86 9.8319998 -1.329 0.43062979 0.26027337 -0.40629405 0.64672953
-10.796 9.7119999 -1.316 0.4573473 0.1915556 -0.3840678 0.62719071
-10.756 9.6149998 -1.306 0.46997055 0.13873719 -0.36869401 0.61323375
-10.786 9.5810003 -1.306 0.46769902 0.13791148 -0.36032 0.60629404
-10.767 9.5030003 -1.299 0.46922114 0.092140362 -0.33578983 0.5843057
-10.758 9.4350004 -1.293 0.4674058 0.055667818 -0.31890777 0.56856769
-10.735 9.3559999 -1.286 0.46684015 0.0099689765 -0.3133983 0.56236786
-10.727 9.2889996 -1.281 0.46418899 -0.020690173 -0.31022489 0.55869401
-10.702 9.2390003 -1.275 0.46359149 -0.041503496 -0.31385672 0.56137836
-10.695 9.1739998 -1.27 0.45831373 -0.059489101 -0.30713946 0.55490994
-10.689 9.1099997 -1.266 0.44822216 -0.089432806 -0.29741025 0.54530191
-10.695 9.0570002 -1.263 0.44242418 -0.11247718 -0.29761988 0.54494756
-10.695 8.9989996 -1.2589999 0.43728405 -0.1309613 -0.298522 0.54542059
-10.698 8.9449997 -1.255 0.43364915 -0.1572018 -0.31121522 0.55643409
-10.705 8.8940001 -1.252 0.41908142 -0.1795186 -0.29984465 0.54567665
-10.691 8.8540001 -1.249 0.40758938 -0.19809851 -0.29471016 0.5405795
-10.748 8.8439999 -1.253 0.39736217 -0.22056864 -0.29867595 0.5438332
-10.785 8.8179998 -1.2539999 0.3809458 -0.24305613 -0.29394406 0.53907245
-10.79 8.7650003 -1.251 0.37001491 -0.27149615 -0.31140435 0.55461144
-10.768 8.691 -1.244 0.35797122 -0.28691298 -0.31058884 0.55401075
-10.798 8.6599998 -1.245 0.35024074 -0.30600372 -0.32700276 0.56853992
-10.782 8.5909996 -1.239 0.33807135 -0.3185204 -0.32426983 0.56647897
-10.746 8.5349998 -1.232 0.33440122 -0.32760364 -0.33335716 0.57469589
-10.824 8.5419998 -1.239 0.32045585 -0.34409747 -0.33985719 0.58017057
-11.071 8.6809998 -1.268 0.28272668 -0.35440403 -0.29937875 0.5432902
-10.899 8.4910002 -1.242 0.29597506 -0.3657442 -0.3402288 0.58062524
-10.943 8.4700003 -1.244 0.27791166 -0.3816621 -0.34579164 0.58521169
-11.003 8.4610004 -1.248 0.25818449 -0.39511198 -0.34619308 0.58533955
-11.047 8.4399996 -1.251 -0.24196699 0.41347593 -0.65548778 0.81189567
-11.1 8.4250002 -1.2539999 -0.22443832 0.42254695 -0.65754998 0.81319767
-11.148 8.434 -1.2589999 -0.21164955 0.4283289 -0.65980476 0.81461859
-11.203 8.4209995 -1.263 -0.19915889 0.43798622 -0.64921653 0.80807072
-11.264 8.4119997 -1.267 -0.17824021 0.44562212 -0.65362555 0.81090999
-11.323 8.3999996 -1.271 -0.16182905 0.45290083 -0.65104657 0.80942541
-11.373 8.382 -1.274 -0.14714898 0.459144 -0.64774287 0.80748796
-11.428 8.368 -1.278 -0.12708274 0.46433473 -0.65077281 0.80948257
-11.485 8.3540001 -1.2819999 -0.10840616 0.47250396 -0.64045656 0.80324125
-11.533 8.3620005 -1.2869999 -0.098741435 0.47405821 -0.64285815 0.80482775
-11.594 8.3500004 -1.291 -0.085818052 0.47534296 -0.64733642 0.80768812
-11.665 8.3459997 -1.2970001 -0.074820668 0.4777995 -0.64587259 0.80687165
-11.715 8.3269997 -1.3 -0.06215743 0.4784615 -0.6499691 0.80947441
-11.782 8.3190002 -1.3049999 -0.056060996 0.47848532 -0.65253341 0.81110471
-11.872 8.3260002 -1.313 -0.050360914 0.4774338 -0.65801501 0.8145324
-11.907 8.2959995 -1.314 -0.046836156 0.47705668 -0.66015869 0.8158347
-11.965 8.3079996 -1.3200001 -0.045609664 0.47834882 -0.6567837 0.81379521
-12.027 8.2950001 -1.325 -0.045020793 0.48417613 -0.63829267 0.80241567
-12.09 8.283 -1.329 -0.045739617 0.48389679 -0.63902462 0.80287027
-12.146 8.2650003 -1.3329999 -0.046165355 0.48348743 -0.64023465 0.80361164
-12.216 8.257 -1.339 -0.03958337 0.48853219 -0.62438279 0.79377854
-12.29 8.2510004 -1.345 -0.029628474 0.49593192 -0.5953899 0.77544534
-12.362 8.243 -1.351 -0.027688829 0.49752405 -0.58769393 0.77050698
-12.419 8.2250004 -1.355 -0.033062756 0.49577719 -0.59501523 0.77519757
-12.475 8.2340002 -1.36 -0.03379149 0.49605677 -0.59356654 0.7742967
-12.554 8.2299995 -1.367 -0.036687791 0.49554425 -0.59526849 0.77540612
-12.617 8.2150002 -1.3710001 -0.042054564 0.49380735 -0.60153461 0.77939606
-12.688 8.2040005 -1.377 -0.048580751 0.49225387 -0.60574764 0.78205127
-12.76 8.1940002 -1.383 -0.04512788 0.49058595 -0.61480975 0.78784651
-12.839 8.1890001 -1.3890001 -0.046898801 0.48941559 -0.61887616 0.79040164
-12.914 8.1789999 -1.395 -0.046893578 0.48598275 -0.63210273 0.79870647
-12.98 8.1929998 -1.402 -0.045878951 0.4878059 -0.62606323 0.79499346
-13.058 8.1850004 -1.408 -0.040096648 0.48822096 -0.62673616 0.79546571
-13.129 8.1719999 -1.414 -0.015400968 0.49471262 -0.60672092 0.7829994
-13.212 8.1669998 -1.421 -0.0013074633 0.49925533 -0.58602053 0.76985562
-13.287 8.1560001 -1.427 0.00084614987 0.50114882 -0.57478756 0.76258218
-13.374 8.151 -1.434 0.0037757654 0.50042295 -0.5798161 0.7659139
-13.478 8.1569996 -1.444 0.0075185103 0.49839213 -0.5919494 0.77385741
-13.552 8.1719999 -1.452 0.0019838703 0.50119537 -0.5760771 0.7635873
-13.639 8.1669998 -1.459 -0.019916862 0.50488693 -0.53962481 0.73925799
-13.71 8.151 -1.465 -0.072125845 0.49968413 -0.46258324 0.68474054
-13.785 8.1379995 -1.471 -0.061703935 0.50250971 -0.51118469 0.71946728
-13.874 8.132 -1.478 -0.067229427 0.50193745 -0.51075345 0.71925664
-13.946 8.1149998 -1.484 -0.061961412 0.50169426 -0.53365111 0.73506451
-14.039 8.1099997 -1.492 -0.044443909 0.4994612 -0.57369256 0.76194477
-14.178 8.132 -1.506 -0.22472465 0.34564486 -0.21224976 0.46370411
-14.419 8.2399998 -1.533 -0.21715856 0.1876004 -0.089799345 0.30069199
-14.5 8.2259998 -1.54 -0.2405207 0.07279776 -0.069376379 0.26069677
-14.496 8.1639996 -1.536 -0.19874138 -0.078114331 -0.051544219 0.21967427
-10.959 10.034 -1.448 0.34319195 0.38593423 -0.49139956 0.71288109
-10.937 9.9510002 -1.4400001 0.37058491 0.35759258 -0.48202321 0.70537364
-10.834 9.7959995 -1.42 0.4287332 0.27614889 -0.45195746 0.681422
-10.782 9.5349998 -1.397 0.47807631 0.13398002 -0.39727008 0.63587034
-10.773 9.467 -1.391 0.48219579 0.086377047 -0.37559509 0.61728883
-10.745 9.3839998 -1.382 0.47792113 0.025015561 -0.34395278 0.5893538
-10.761 9.3380003 -1.38 0.47775823 -0.0064306399 -0.34473133 0.58918077
-10.763 9.2810001 -1.377 0.47595173 -0.032234259 -0.34487852 0.58865124
-10.752 9.2419996 -1.373 0.47069535 -0.054471605 -0.33742127 0.58169955
-10.719 9.1560001 -1.364 0.45719853 -0.086149178 -0.31667152 0.56279039
-10.633 9.0249996 -1.347 0.45079896 -0.12581025 -0.32680365 0.57083148
-10.777 9.0880003 -1.364 0.44576806 -0.13247262 -0.31952152 0.56422704
-10.755 9.0120001 -1.3559999 0.44121587 -0.15393187 -0.32660243 0.57011896
-10.662 8.8219995 -1.335 0.42146367 -0.2241492 -0.36149639 0.59879386
-10.733 8.8240004 -1.341 0.40598902 -0.24113265 -0.34579158 0.58527243
-10.807 8.8559999 -1.35 0.39352706 -0.24687237 -0.32478514 0.56682879
-10.793 8.7880001 -1.344 0.38026029 -0.27833489 -0.34508884 0.58408433
-10.742 8.6899996 -1.3329999 0.37144452 -0.30008805 -0.36537868 0.60126984
-10.805 8.6850004 -1.3380001 0.35553175 -0.31481311 -0.35684955 0.59401321
-10.838 8.6560001 -1.339 0.34271553 -0.32791218 -0.35470361 0.59227949
-10.876 8.6309996 -1.34 0.33103076 -0.34100491 -0.35698855 0.59439594
-10.811 8.5240002 -1.327 0.32579359 -0.35050818 -0.3661719 0.60256064
-10.86 8.5349998 -1.332 0.31645951 -0.35782689 -0.36390147 0.60050893
-10.914 8.5220003 -1.336 0.2969251 -0.37244645 -0.35946238 0.59673619
-10.942 8.4890003 -1.336 0.28448582 -0.38356298 -0.36374247 0.60030103
-11.002 8.4799995 -1.341 -0.26369992 0.40782723 -0.63330126 0.79807967
-11.062 8.4700003 -1.345 -0.24471128 0.417299 -0.64072549 0.80283946
-11.113 8.4549999 -1.349 -0.23283771 0.42504424 -0.63749146 0.80079418
-11.157 8.4329996 -1.351 -0.21851869 0.4301872 -0.64446861 0.80507839
-11.214 8.448 -1.357 -0.20995621 0.43433678 -0.64482033 0.80530947
-11.259 8.427 -1.36 -0.19293441 0.44355246 -0.64104289 0.8030557
-11.314 8.4130001 -1.364 -0.17595048 0.45272586 -0.63469356 0.79922163
-11.374 8.4020004 -1.369 -0.16058889 0.4572463 -0.63908291 0.80205357
-11.418 8.3789997 -1.3710001 -0.14276527 0.4641932 -0.63613755 0.80033004
-11.474 8.3640003 -1.375 -0.12393617 0.46900314 -0.63882065 0.80213213
-11.547 8.3620005 -1.381 -0.10052884 0.47384977 -0.6422922 0.80447429
-11.587 8.3360004 -1.383 -0.091760077 0.47514823 -0.64406359 0.80560768
-11.79 8.342 -1.402 -0.062889703 0.47827357 -0.65050012 0.80984634
-11.836 8.3179998 -1.405 -0.056661781 0.47682515 -0.65745348 0.81413627
-11.914 8.3179998 -1.4119999 -0.051213384 0.47604111 -0.66180372 0.81683666
-11.986 8.3120003 -1.418 -0.04731169 0.47422308 -0.66822612 0.82076311
-12.039 8.2919998 -1.421 -0.043542039 0.47535497 -0.66616768 0.81953496
-12.107 8.3109999 -1.429 -0.021211306 0.49053365 -0.62181783 0.7922945
-12.166 8.2950001 -1.433 -0.022234261 0.49819648 -0.58554095 0.76912439
-12.44 8.2550001 -1.456 -0.035385419 0.49706301 -0.5875085 0.770383
-12.514 8.2469997 -1.462 -0.039608527 0.4960137 -0.59148556 0.77295125
-12.64 8.2449999 -1.474 -0.047073249 0.49622172 -0.58668709 0.76983994
-12.689 8.2200003 -1.477 -0.054423664 0.49369609 -0.5957067 0.77560574
-13.652 8.158 -1.564 0.013408624 0.48872471 -0.63386029 0.80050641
-13.72 8.1689997 -1.571 0.0005505872 0.49604291 -0.60478467 0.7821914
-13.814 8.1660004 -1.58 -0.13299562 0.45478445 -0.32496858 0.57456183
-14.003 8.1590004 -1.598 -0.23357172 0.17017516 -0.09190473 0.30325207
-14.125 8.1709995 -1.61 -0.23322704 0.13967432 -0.080826968 0.28361377
-14.192 8.1499996 -1.615 -0.20894144 0.098214619 -0.057354748 0.23789117
-14.257 8.1280003 -1.62 -0.19937713 0.041972619 -0.045046985 0.20866761
-14.337 8.1440001 -1.6289999 -0.20048361 0.041073546 -0.045457274 0.20963557
-14.399 8.1190004 -1.6339999 -0.19821544 0.019102311 -0.043349296 0.2037975
-14.506 8.1190004 -1.6440001 -0.20262034 -0.012840497 -0.045656115 0.208097
-10.739 9.4919996 -1.478 0.48624948 0.10800786 -0.41014013 0.64522797
-10.716 9.4420004 -1.472 0.48937207 0.084772438 -0.40666297 0.64190823
-10.719 9.3839998 -1.4680001 0.48856318 0.042832524 -0.38397735 0.62287015
-10.714 9.3210001 -1.4630001 0.48402771 -0.0037011635 -0.3650493 0.60626525
-10.712 9.2600002 -1.4579999 0.48039699 -0.033174507 -0.35951316 0.60094219
-10.706 9.1960001 -1.452 0.46824667 -0.071972758 -0.33861968 0.58232147
-10.701 9.1330004 -1.447 0.46434665 -0.098779775 -0.34388494 0.58620143
-10.706 9.0799999 -1.444 0.4595497 -0.12306389 -0.3489691 0.59000856
-10.689 9.0360003 -1.439 0.45351192 -0.14514618 -0.35223997 0.59229511
-10.687 8.9770002 -1.434 0.4464843 -0.17218259 -0.36210525 0.60009605
-10.575 8.7700005 -1.408 0.3377223 -0.23128532 -0.2188943 0.46418098
-10.679 8.8000002 -1.42 0.35572702 -0.25495064 -0.26621133 0.51225972
-10.711 8.7700005 -1.421 0.34741598 -0.27519223 -0.27766472 0.52299744
-10.723 8.6389999 -1.4119999 0.29963571 -0.30123287 -0.24389896 0.48990765
-10.739 8.5970001 -1.411 0.29258132 -0.30885184 -0.24410635 0.49049076
-10.758 8.5570002 -1.409 0.27952859 -0.32596996 -0.25063139 0.49720091
-10.787 8.5240002 -1.41 0.2734091 -0.33062088 -0.2493926 0.49624527
-10.824 8.4989996 -1.411 0.25942504 -0.34956706 -0.26071385 0.50741524
-10.857 8.4700003 -1.4119999 0.25472429 -0.36223108 -0.27484611 0.52118731
-10.899 8.448 -1.415 0.2434317 -0.37935039 -0.29147759 0.53677267
-10.942 8.4540005 -1.419 0.26026186 -0.39206097 -0.34151846 0.58144897
-11.005 8.4469995 -1.424 -0.25915685 0.41664311 -0.61351496 0.78559172
-11.047 8.4250002 -1.427 -0.24433117 0.42381355 -0.6198225 0.78961736
-11.104 8.4130001 -1.431 -0.23219272 0.43076181 -0.61899042 0.78906173
-11.16 8.401 -1.4349999 -0.21735725 0.43612808 -0.62691545 0.79402447
-11.191 8.3690004 -1.436 -0.20012631 0.44553819 -0.62307346 0.79169148
-11.259 8.3649998 -1.442 -0.18574268 0.45069671 -0.62735474 0.79448211
-11.283 8.3549995 -1.444 -0.17919046 0.45222095 -0.63148695 0.79711276
-11.346 8.3470001 -1.449 -0.16012281 0.45863295 -0.63467139 0.79924417
-11.801 8.5690002 -1.508 -0.069371179 0.48674169 -0.61870086 0.79026616
-11.812 8.5200005 -1.505 -0.067403503 0.48512456 -0.62579489 0.79467499
-11.815 8.4659996 -1.502 -0.066983819 0.48167863 -0.63814569 0.80232859
-11.731 8.3500004 -1.4859999 -0.073465504 0.47710323 -0.64899671 0.80883956
-11.92 8.2889996 -1.5 -0.056827724 0.47598177 -0.65975052 0.81551135
-11.987 8.2799997 -1.506 -0.052238591 0.47428843 -0.66631085 0.81954169
-12.057 8.2720003 -1.512 -0.018748943 0.49079835 -0.6208269 0.79161894
-12.113 8.2550001 -1.516 -0.01128179 0.49589348 -0.59966421 0.77822536
-12.191 8.2519999 -1.524 -0.0051273042 0.49690932 -0.59550411 0.77560961
-12.317 8.2539997 -1.536 -0.032428872 0.49881935 -0.57790434 0.76409805
-12.517 8.2180004 -1.553 -0.050404087 0.49762666 -0.57515031 0.76221436
-12.613 8.224 -1.563 -0.061731774 0.49506193 -0.58288395 0.76723582
-13.971 8.1719999 -1.6950001 -0.22358279 0.14047009 -0.075764686 0.27470237
-14.046 8.1569996 -1.702 -0.21606664 0.11286765 -0.064164668 0.25207341
-14.125 8.1440001 -1.709 -0.20699967 0.081324354 -0.053300291 0.22869945
-14.223 8.1409998 -1.719 -0.18878902 0.058210831 -0.041935861 0.20196141
-10.707 9.3830004 -1.549 0.49459594 0.053089052 -0.41710472 0.64916867
-10.717 9.3319998 -1.545 0.49218911 0.013998711 -0.39686224 0.63241261
-10.695 9.2539997 -1.5369999 0.48642501 -0.030345973 -0.38081554 0.61850679
-10.704 9.2040005 -1.534 0.48096299 -0.061291598 -0.37443668 0.61260498
-10.689 9.1330004 -1.527 0.47008443 -0.10517914 -0.36750248 0.60588783
-10.703 9.0869999 -1.524 0.4641813 -0.13351209 -0.37516457 0.61158663
-10.696 9.0240002 -1.5190001 0.42694154 -0.16987146 -0.30840117 0.55339557
-10.695 8.9940004 -1.516 0.40464729 -0.18251529 -0.27537394 0.52238119
-10.684 8.927 -1.51 0.37671319 -0.20723817 -0.25086236 0.49778751
-10.695 8.8800001 -1.507 0.35956782 -0.24121693 -0.25764734 0.503842
-10.698 8.8260002 -1.503 0.33419749 -0.26551151 -0.24786499 0.49358016
-10.712 8.7810001 -1.501 0.32859901 -0.27904049 -0.25541833 0.50107825
-10.687 8.7049999 -1.493 0.31200546 -0.28364143 -0.23889282 0.48463351
-10.698 8.6569996 -1.49 0.30416787 -0.29573184 -0.24285272 0.48882803
-10.694 8.6269999 -1.488 0.29530692 -0.29587057 -0.23246977 0.47831765
-10.717 8.5900002 -1.487 0.28266397 -0.30838555 -0.23257044 0.47863302
-10.734 8.5489998 -1.485 0.26670364 -0.31635377 -0.22524044 0.47110912
-10.766 8.5179996 -1.4859999 0.25834519 -0.33044377 -0.23379451 0.4802033
-10.816 8.5030003 -1.49 0.24018674 -0.34493819 -0.23535019 0.48172787
-10.863 8.4849997 -1.493 0.23562962 -0.35754427 -0.24832886 0.49500147
-10.913 8.4689999 -1.497 0.23359431 -0.36959863 -0.26450312 0.51101011
-10.947 8.467 -1.5 0.23031829 -0.37660512 -0.27272773 0.51890111
-10.994 8.4490004 -1.503 0.23919235 -0.39064148 -0.30853152 0.55227298
-11.049 8.4359999 -1.507 -0.24610856 0.42351085 -0.6172002 0.78795105
-11.089 8.4119997 -1.51 -0.2410547 0.42978376 -0.60358328 0.77918816
-11.157 8.408 -1.516 -0.22405079 0.43726796 -0.61025131 0.78345942
-11.203 8.3870001 -1.5190001 -0.20539656 0.44497052 -0.61615479 0.78729486
-11.248 8.3660002 -1.522 -0.19394772 0.44924462 -0.61972237 0.78961527
-11.308 8.3549995 -1.527 -0.17886625 0.45499212 -0.62218606 0.79128152
-11.385 8.3839998 -1.5369999 -0.16616201 0.46038336 -0.62084007 0.79057264
-11.419 8.3540001 -1.538 -0.14619257 0.46575451 -0.62663561 0.79433727
-11.51 8.3649998 -1.548 -0.12372595 0.47232214 -0.62747741 0.79506236
-11.55 8.3389997 -1.55 -0.10884172 0.47314233 -0.63796657 0.80169296
-11.617 8.3319998 -1.556 -0.091929868 0.47551742 -0.64268661 0.80474466
-11.69 8.3290005 -1.563 -0.080311053 0.4773522 -0.64416867 0.80577183
-11.878 8.4060001 -1.587 -0.064641833 0.48166788 -0.63908559 0.8028779
-11.797 8.3210001 -1.573 -0.069885746 0.477148 -0.65060329 0.80983877
-11.848 8.3009996 -1.577 -0.065791436 0.4744319 -0.66065961 0.81601793
-11.928 8.3009996 -1.585 -0.059989117 0.47649574 -0.65704405 0.81385118
-12 8.2950001 -1.592 -0.017374076 0.49541581 -0.6008746 0.77896661
-12.063 8.283 -1.597 -0.006201122 0.49917412 -0.58277762 0.76736104
-12.142 8.2810001 -1.605 -0.0083794482 0.50022852 -0.57616538 0.76306313
-12.189 8.2580004 -1.608 -0.011320513 0.50009316 -0.57640857 0.76319599
-12.263 8.2790003 -1.617 -0.026455667 0.50314844 -0.54687458 0.74359268
-12.324 8.2639999 -1.622 -0.058452051 0.50232798 -0.49519116 0.70778835
-12.386 8.2489996 -1.628 -0.06019859 0.50206918 -0.49127603 0.70501739
-12.457 8.2399998 -1.6339999 -0.064858168 0.50155103 -0.4989374 0.71042138
-12.537 8.2370005 -1.642 -0.067292213 0.50013369 -0.53300941 0.73400337
-12.62 8.2340002 -1.651 -0.073866256 0.49827957 -0.54443949 0.74172306
-12.699 8.2290001 -1.658 -0.066240989 0.49907216 -0.54856062 0.74456674
-12.766 8.2159996 -1.665 -0.064729661 0.49742872 -0.56469619 0.75531918
-12.821 8.2220001 -1.671 -0.067246825 0.49399409 -0.58488047 0.76852942
-12.912 8.2229996 -1.6799999 -0.029106729 0.50458997 -0.52975619 0.73218846
-12.992 8.217 -1.688 -0.02002684 0.50554597 -0.52280378 0.72753114
-13.07 8.2080002 -1.6950001 -0.019007761 0.50614142 -0.49968374 0.71149445
-13.137 8.1929998 -1.702 -0.021120818 0.50599772 -0.4935284 0.70714217
-13.215 8.184 -1.709 -0.021801468 0.50601006 -0.50729275 0.71684545
-13.386 8.2030001 -1.728 -0.019417744 0.5045498 -0.54218847 0.7408886
-13.459 8.1899996 -1.735 -0.003119255 0.49405274 -0.61255324 0.78696841
-13.645 8.1850004 -1.7539999 0.026027013 0.47469121 -0.67580366 0.82626855
-13.885 8.1230001 -1.776 -0.22181639 0.11903062 -0.068811297 0.26097086
-14.079 8.1759996 -1.8 -0.20428862 0.10545588 -0.056662351 0.23678134
-14.175 8.1730003 -1.8099999 -0.1822615 0.085717127 -0.043081552 0.20596772
-14.246 8.1540003 -1.816 -0.18114765 0.074302226 -0.040817708 0.20000345
-10.552 9.3079996 -1.6 0.48701376 0.012109543 -0.37502709 0.61479622
-10.571 9.2080002 -1.594 0.4547497 -0.049371235 -0.29566318 0.54465723
-10.563 9.1420002 -1.587 0.44246417 -0.078411475 -0.28037351 0.52965289
-10.555 9.1059999 -1.584 0.43181035 -0.098423876 -0.2688573 0.51810396
-10.547 9.0419998 -1.5779999 0.41761494 -0.12466013 -0.25721586 0.50606561
-10.542 8.9799995 -1.572 0.39534268 -0.16837765 -0.24890158 0.49658722
-10.555 8.934 -1.569 0.38131163 -0.18401301 -0.23901334 0.48619616
-10.561 8.882 -1.566 0.37059525 -0.20739971 -0.24198523 0.48878658
-10.563 8.8269997 -1.561 0.32899538 -0.23296674 -0.2106421 0.45484233
-10.577 8.7819996 -1.559 0.31739119 -0.24923256 -0.21159431 0.45566016
-10.568 8.7469997 -1.5549999 0.30967236 -0.25956696 -0.21244413 0.4565134
-10.567 8.691 -1.551 0.30378884 -0.25692555 -0.20328319 0.44679129
-10.613 8.5620003 -1.545 0.26625019 -0.29179814 -0.19907993 0.44234392
-10.784 8.6440001 -1.568 0.2813983 -0.32007724 -0.24622256 0.49219912
-10.675 8.5010004 -1.546 0.25983161 -0.3023141 -0.20292017 0.44730625
-10.714 8.4779997 -1.548 0.24777098 -0.32037011 -0.21175778 0.45702168
-10.754 8.4820004 -1.552 0.24137083 -0.32785332 -0.2149432 0.46037838
-10.799 8.4630003 -1.5549999 0.23501217 -0.34297526 -0.22780305 0.47408542
-10.855 8.4519997 -1.5599999 0.21473904 -0.35500041 -0.22685975 0.47286731
-10.88 8.4169998 -1.5599999 0.21475145 -0.35674736 -0.22894567 0.4751873
-10.939 8.408 -1.5650001 0.20545234 -0.37113115 -0.24173623 0.48824728
-10.993 8.3940001 -1.5700001 0.19999661 -0.38474441 -0.25808281 0.50461239
-11.035 8.3710003 -1.572 0.19336207 -0.39562112 -0.27058199 0.51683611
-11.083 8.3800001 -1.5779999 -0.19813912 0.41849852 -0.6978274 0.83747429
-11.12 8.3540001 -1.58 -0.19727294 0.42908618 -0.67436373 0.82328486
-11.195 8.3559999 -1.587 -0.20899314 0.44571236 -0.60611182 0.78083873
-11.242 8.3360004 -1.591 -0.19410349 0.4500626 -0.61613148 0.78730583
-11.295 8.3210001 -1.595 -0.17769246 0.45521042 -0.6228919 0.79169786
-11.609 8.4969997 -1.641 -0.11070173 0.47941184 -0.61434078 0.78708655
-11.434 8.3129997 -1.609 -0.13920833 0.46602356 -0.63330024 0.79851496
-11.539 8.3610001 -1.623 -0.11739238 0.47291705 -0.63151693 0.79764974
-11.554 8.3170004 -1.6210001 -0.10522236 0.47056979 -0.64897615 0.80850339
-11.618 8.3079996 -1.628 -0.093656607 0.47261187 -0.65066248 0.80962658
-11.67 8.29 -1.632 -0.085586928 0.47051898 -0.66175961 0.81647968
-11.834 8.3509998 -1.653 -0.068745747 0.47922602 -0.64475191 0.80628073
-11.803 8.2740002 -1.6440001 -0.073099211 0.46878123 -0.6729669 0.8233977
-11.879 8.2720003 -1.652 -0.06622456 0.47100553 -0.66997457 0.82164335
-11.943 8.2609997 -1.658 -0.024598923 0.4899264 -0.62273663 0.7927382
-11.995 8.2690001 -1.664 -0.010745551 0.49769828 -0.59009504 0.77203059
-12.059 8.257 -1.67 -0.0072707003 0.49653324 -0.59678215 0.7763679
-12.145 8.2600002 -1.679 -0.010158226 0.49803147 -0.58879954 0.77124798
-12.204 8.2449999 -1.684 -0.010188523 0.495621 -0.60124123 0.77925283
-12.281 8.2399998 -1.692 -0.016569855 0.49876556 -0.58362299 0.76789153
-12.354 8.2340002 -1.7 -0.06550952 0.50102448 -0.48155978 0.69800919
-12.416 8.2189999 -1.705 -0.067588218 0.50103819 -0.49275488 0.70598495
-12.495 8.243 -1.715 -0.073815048 0.49988052 -0.51864225 0.72409868
-12.561 8.2299995 -1.721 -0.076359987 0.49846187 -0.53667444 0.73642009
-12.613 8.2080002 -1.725 -0.077686891 0.49610007 -0.55867863 0.75118065
-12.716 8.2180004 -1.737 -0.074791864 0.49409473 -0.57708699 0.76338249
-12.783 8.2049999 -1.743 -0.068723448 0.49393561 -0.58366472 0.76769769
-12.861 8.198 -1.751 -0.043310959 0.49969131 -0.5668534 0.75689495
-13.076 8.1920004 -1.774 -0.015491642 0.50625902 -0.50340664 0.71411234
-13.495 8.1619997 -1.818 0.017079361 0.4259817 -0.77247202 0.88230669
-13.585 8.1590004 -1.827 0.017014492 0.4308061 -0.76494455 0.87807947
-13.642 8.1639996 -1.834 -0.048613325 -0.24629931 -0.07226029 0.26124349
-13.894 8.1389999 -1.86 -0.17919105 0.091821089 -0.043014675 0.20589028
-14.088 8.1929998 -1.885 -0.19131349 0.11237879 -0.052308023 0.22796047
-14.07 8.1239996 -1.8789999 -0.18950607 0.071448408 -0.043940187 0.20723939
-10.53 9.1420002 -1.681 0.45078072 -0.077608898 -0.2975719 0.54568803
-10.637 9.2060003 -1.698 0.46525344 -0.07263571 -0.3306191 0.57536572
-10.667 9.1739998 -1.698 0.46220633 -0.10214294 -0.34016162 0.58290464
-10.658 9.1079998 -1.692 0.4190588 -0.1574863 -0.28199226 0.52908587
-10.66 9.052 -1.687 0.39990568 -0.17988233 -0.2652992 0.51250941
-10.676 9.0080004 -1.6849999 0.3862696 -0.20758612 -0.26662847 0.51321238
-10.662 8.9390001 -1.677 0.3659547 -0.22155964 -0.24801576 0.49449301
-10.671 8.8900003 -1.674 0.34067294 -0.24932647 -0.23989081 0.48556086
-10.679 8.8400002 -1.671 0.32400647 -0.26179075 -0.23117879 0.47640133
-10.681 8.8129997 -1.668 0.31395614 -0.27963153 -0.23790696 0.48307553
-10.664 8.743 -1.661 0.30221248 -0.28185529 -0.22618175 0.47109762
-10.673 8.6949997 -1.6569999 0.29229054 -0.28238839 -0.21553552 0.46003535
-10.702 8.6619997 -1.658 0.27803048 -0.3038187 -0.22377583 0.46870288
-10.705 8.5539999 -1.649 0.26564974 -0.30716622 -0.21368948 0.4588944
-10.76 8.5430002 -1.654 0.25696212 -0.3227919 -0.22319937 0.46908647
-10.796 8.5439997 -1.658 0.25082323 -0.33045992 -0.22677577 0.47280365
-10.837 8.5209999 -1.66 0.23592882 -0.34014463 -0.22538289 0.47133666
-10.875 8.4960003 -1.6619999 0.2211425 -0.35023394 -0.22593623 0.47182092
-10.933 8.4860001 -1.6670001 0.21964276 -0.36023811 -0.23801994 0.48442537
-10.982 8.4680004 -1.671 0.20768805 -0.37202749 -0.24511856 0.49155048
-11.033 8.4530001 -1.675 0.20580328 -0.38170519 -0.25837779 0.50479001
-11.076 8.4300003 -1.678 0.20474894 -0.39677554 -0.28296012 0.52860135
-11.106 8.4259996 -1.681 -0.19722393 0.41568261 -0.70472538 0.84162176
-11.155 8.408 -1.6849999 -0.20708574 0.42705795 -0.66802651 0.81946474
-11.205 8.3900003 -1.689 -0.21756732 0.44618735 -0.58483934 0.76710874
-11.297 8.4040003 -1.7 -0.19860151 0.45318022 -0.59502566 0.77386719
-11.32 8.3660002 -1.699 -0.18919557 0.45532909 -0.6038031 0.77954972
-11.448 8.4049997 -1.716 -0.15461996 0.46684018 -0.61194718 0.78506458
-11.521 8.4029999 -1.724 -0.12962863 0.47425792 -0.61395091 0.78654933
-11.546 8.3649998 -1.724 -0.11913969 0.47210234 -0.63280022 0.79844284
-11.595 8.3730001 -1.73 -0.10645658 0.47420636 -0.63663733 0.80094427
-11.672 8.3730001 -1.738 -0.091592066 0.4755272 -0.6433208 0.80521852
-11.744 8.368 -1.7460001 -0.083279267 0.47596639 -0.64728457 0.80774796
-11.803 8.3540001 -1.751 -0.07956963 0.47543743 -0.6510753 0.81010562
-11.825 8.3149996 -1.75 -0.075404622 0.46912184 -0.6712563 0.82240272
-11.933 8.3339996 -1.7640001 -0.017578835 0.4994837 -0.57872224 0.76466489
-11.956 8.2950001 -1.763 -0.014489284 0.49787444 -0.58851981 0.77100223
-12.028 8.316 -1.773 -0.011034992 0.49897993 -0.58339751 0.76775998
-12.091 8.3039999 -1.779 -0.0096096229 0.4993366 -0.58157068 0.76658583
-12.158 8.2939997 -1.786 -0.011249009 0.49981007 -0.57848048 0.7645759
-12.248 8.2989998 -1.796 -0.0088866306 0.49963272 -0.58041322 0.76589251
-12.32 8.2910004 -1.804 -0.024436686 0.50193834 -0.55980301 0.75227565
-12.409 8.2939997 -1.814 -0.069853708 0.50077254 -0.48944172 0.70370865
-12.486 8.2889996 -1.822 -0.078815185 0.49943352 -0.50830626 0.7169525
-12.519 8.283 -1.825 -0.077897303 0.49952915 -0.51122195 0.71898901
-14.013 8.2279997 -1.992 -0.16064893 0.12296656 -0.042584211 0.20674203
-14.093 8.1569996 -1.997 -0.17441469 0.090487786 -0.040800154 0.20068179
-10.619 9.1199999 -1.783 0.42670467 -0.13554014 -0.28066888 0.52841556
-10.622 9.0640001 -1.779 0.40152192 -0.17278628 -0.26239073 0.50982726
-10.606 9.0220003 -1.773 0.38603768 -0.18574809 -0.24768573 0.49484912
-10.61 8.9680004 -1.768 0.36884734 -0.20971566 -0.24178723 0.48835444
-10.617 8.9169998 -1.765 0.35348859 -0.2170894 -0.22697571 0.47286355
-10.618 8.8610001 -1.7589999 0.33617476 -0.23616311 -0.22166714 0.46682203
-10.636 8.8199997 -1.758 0.32000732 -0.25813401 -0.22274387 0.46760312
-10.638 8.7650003 -1.753 0.30308375 -0.27403855 -0.21929306 0.46373087
-10.643 8.7119999 -1.749 0.29403687 -0.2780087 -0.21300697 0.45729473
-10.642 8.684 -1.7460001 0.28486675 -0.28207284 -0.2076683 0.45148674
-10.618 8.5539999 -1.732 0.2716668 -0.27695501 -0.18893662 0.43151358
-10.684 8.5509996 -1.739 0.25538942 -0.29553071 -0.19258067 0.43548763
-10.724 8.5290003 -1.742 0.2423369 -0.31233391 -0.19882464 0.44250524
-10.756 8.4989996 -1.742 0.23089579 -0.31758544 -0.19513655 0.43846512
-10.79 8.4709997 -1.744 0.22429019 -0.31888089 -0.19140053 0.43431011
-10.836 8.4519997 -1.747 0.20773683 -0.33319396 -0.19526288 0.4385207
-10.883 8.4619999 -1.753 0.20459487 -0.34246618 -0.20383692 0.44798622
-10.917 8.4329996 -1.755 0.19028606 -0.34488758 -0.19724718 0.44052547
-10.969 8.4180002 -1.7589999 0.18399706 -0.36175683 -0.21375406 0.45870873
-11.017 8.401 -1.763 0.1782382 -0.37018073 -0.22094941 0.46649897
-11.078 8.3929996 -1.7690001 0.18210343 -0.38385656 -0.24267223 0.48928246
-11.122 8.3710003 -1.772 0.17564383 -0.39137211 -0.24954003 0.49627927
-11.228 8.3950005 -1.786 -0.20336665 0.44745874 -0.61019361 0.78352636
-11.233 8.3719997 -1.785 -0.19466013 0.44631675 -0.62898552 0.79543322
-11.256 8.3339996 -1.784 -0.17625667 0.44757795 -0.64974654 0.80843246
-11.44 8.415 -1.812 -0.16185354 0.47148871 -0.57683098 0.76238579
-11.455 8.3710003 -1.8099999 -0.1496363 0.46941358 -0.60791659 0.78249776
-11.492 8.3430004 -1.812 -0.14016575 0.46983463 -0.61852944 0.78928429
-11.575 8.3479996 -1.822 -0.11019419 0.47441906 -0.63244915 0.79825318
-11.628 8.3310003 -1.827 -0.10099164 0.47380748 -0.64193612 0.80422312
-11.733 8.323 -1.8380001 -0.086120635 0.472334 -0.65647364 0.81331038
-11.932 8.408 -1.868 -0.020211916 0.50410849 -0.54070306 0.73952258
-11.894 8.3249998 -1.857 -0.021564798 0.4990578 -0.58001584 0.76546854
-14.334 8.9379997 -2.1930001 0.016455973 0.20298211 -0.03932032 0.20740932
-14.347 8.9139996 -2.1930001 0.022850016 0.19546767 -0.036439359 0.20014384
-14.344 8.8500004 -2.188 0.015312329 0.20297307 -0.039331198 0.20731492
-14.369 8.8030005 -2.187 0.016469778 0.20564918 -0.04053393 0.21025184
-14.368 8.7410002 -2.1830001 0.013661642 0.1978703 -0.037242323 0.20180754
-14.39 8.6920004 -2.1819999 -0.0084636426 0.19921766 -0.037959516 0.20297842
-14.397 8.6350002 -2.178 -0.017524745 0.19885869 -0.038196772 0.20325081
-14.417 8.585 -2.177 -0.033303581 0.19762604 -0.038775891 0.20412923
-14.123 8.3199997 -2.122 -0.13589182 0.14738104 -0.040998936 0.20461835
-14.069 8.2279997 -2.109 -0.16439405 0.1124614 -0.0414415 0.20344624
-10.724 9.0620003 -1.853 0.40314871 -0.20574178 -0.2951144 0.54032499
-10.681 8.9969997 -1.842 0.35720423 -0.23082605 -0.24462256 0.49062788
-10.72 8.9720001 -1.844 0.33770001 -0.2524789 -0.23958948 0.48496392
-10.691 8.8920002 -1.8329999 0.31927824 -0.25760219 -0.22178692 0.46635494
-10.678 8.8240004 -1.825 0.30255145 -0.27125281 -0.21629941 0.46032694
-10.672 8.7629995 -1.819 0.28440902 -0.28436619 -0.21037975 0.45388573
-10.687 8.7200003 -1.817 0.27208564 -0.29716906 -0.21130896 0.45496321
-10.698 8.6719999 -1.813 0.2656658 -0.2956073 -0.2030648 0.44631526
-10.724 8.665 -1.816 0.25306299 -0.30636677 -0.20331174 0.44635987
-10.703 8.5930004 -1.807 0.24587491 -0.30668741 -0.19660282 0.43950462
-10.731 8.5609999 -1.807 0.23900472 -0.31192738 -0.19607273 0.43916565
-10.75 8.5209999 -1.806 0.23295258 -0.31553406 -0.19474339 0.43789682
-10.797 8.5030003 -1.809 0.22883239 -0.32644966 -0.20318589 0.44745743
-10.841 8.4829998 -1.813 0.22047724 -0.33445999 -0.20586821 0.45039475
-10.891 8.467 -1.817 0.20681489 -0.33923572 -0.20153838 0.44550085
-10.928 8.4680004 -1.821 0.19768424 -0.34703091 -0.2046285 0.44875643
-10.984 8.4560003 -1.827 0.18901375 -0.36394709 -0.2200672 0.4654173
-11.027 8.434 -1.83 0.1840439 -0.36968362 -0.2241616 0.4698793
-11.082 8.4200001 -1.835 0.18022445 -0.37750474 -0.23226273 0.47847325
-11.129 8.401 -1.839 0.18042514 -0.39488241 -0.25887164 0.50546998
-11.242 8.4309998 -1.854 -0.22449934 0.44870403 -0.54393423 0.73999977
-11.245 8.3780003 -1.85 -0.18794483 0.44647494 -0.63829803 0.80130363
-11.265 8.3380003 -1.849 -0.1745943 0.4452616 -0.65833867 0.81372654
-11.353 8.375 -1.863 -0.18558386 0.4616206 -0.58046174 0.76450688
-11.497 8.4259996 -1.8839999 -0.1513541 0.47413445 -0.58284461 0.76643288
-11.474 8.3540001 -1.875 -0.14394434 0.4686552 -0.61852193 0.78925723
-11.524 8.335 -1.8789999 -0.12381278 0.4725337 -0.62637728 0.79433382
-11.66 8.3769999 -1.899 -0.101863 0.47815198 -0.62650001 0.79467458
-11.684 8.3389997 -1.899 -0.097391643 0.4728241 -0.64785576 0.80793864
-11.756 8.335 -1.9069999 -0.091914825 0.47068074 -0.6580373 0.81424922
-11.77 8.3170004 -1.9069999 -0.091299951 0.4631789 -0.67884499 0.8268621
-11.889 8.3450003 -1.924 -0.019669084 0.50163531 -0.56308264 0.75437856
-11.917 8.309 -1.924 -0.014185449 0.49865326 -0.58415914 0.76817852
-12.018 8.323 -1.937 -0.01056153 0.49997377 -0.57740986 0.7638635
-12.138 8.3500004 -1.954 -0.010145778 0.50212783 -0.56315506 0.75457203
-12.305 8.3509998 -1.974 -0.01534643 0.50063378 -0.57333755 0.76130521
-13.586 8.9390001 -2.177 -0.0035816752 0.19949354 -0.037712276 0.20305842
-13.604 8.8900003 -2.1760001 -0.0039882669 0.20657182 -0.040731043 0.21058689
-13.63 8.8459997 -2.175 -0.0082888696 0.23536792 -0.054391086 0.24171296
-13.646 8.7959995 -2.1730001 -0.0034095049 0.25631091 -0.065611541 0.26459739
-13.642 8.7629995 -2.1700001 -0.0011640158 0.26988548 -0.073633939 0.27975255
-13.657 8.7119999 -2.168 -0.0019609118 0.27124321 -0.074571162 0.28131405
-13.666 8.658 -2.165 0.0015320701 0.27710843 -0.078289002 0.28795937
-13.683 8.6079998 -2.1630001 -0.00028191553 0.27292246 -0.075734556 0.28323573
-13.693 8.5550003 -2.1600001 0.0062336647 0.25683483 -0.066132367 0.26528567
-13.715 8.5089998 -2.1589999 0.010910558 0.24209557 -0.058083892 0.24920483
-13.728 8.4569998 -2.1570001 0.0031938897 0.23451981 -0.054202735 0.24072324
-13.732 8.4300003 -2.155 0.0073722238 0.21278201 -0.043827742 0.21737388
-13.746 8.3789997 -2.1530001 0.017827343 0.19822153 -0.037780255 0.20257577
-11.258 8.5200005 -1.965 -0.2389835 0.44338214 -0.49675626 0.7074374
-11.263 8.4680004 -1.961 -0.22932971 0.44826883 -0.51240766 0.71840006
-11.258 8.4090004 -1.955 -0.20346482 0.45362914 -0.58150268 0.76506382
-11.257 8.3529997 -1.95 -0.16159327 0.42688319 -0.71298206 0.84657252
-11.294 8.3260002 -1.952 -0.17030434 0.44916978 -0.65205044 0.80989307
-11.371 8.3280001 -1.962 -0.17480993 0.46324933 -0.59419847 0.77345347
-11.609 8.4750004 -2.0050001 -0.12080568 0.48377052 -0.58055449 0.76529175
-11.484 8.3280001 -1.976 -0.13970509 0.46536681 -0.63519341 0.79972148
-11.565 8.3310003 -1.9859999 -0.11935548 0.46683311 -0.64960539 0.80880535
-11.623 8.3179998 -1.992 -0.11168981 0.46471033 -0.66179109 0.81633186
-11.675 8.3000002 -1.997 -0.10495307 0.4626404 -0.67198694 0.82256776
-11.77 8.3120003 -2.01 -0.097096168 0.4561998 -0.69281352 0.83518648
-12.622 8.8570004 -2.165 -0.09372104 0.18475333 -0.04270491 0.211521
-12.642 8.8109999 -2.1630001 -0.089785092 0.19893113 -0.047652751 0.22339593
-12.647 8.7860003 -2.1619999 -0.089499868 0.21236175 -0.053534925 0.23658769
-12.664 8.7379999 -2.1600001 -0.083146527 0.23936033 -0.065656155 0.26175839
-12.683 8.6929998 -2.158 -0.069961242 0.27712804 -0.085497588 0.298336
-12.703 8.6479998 -2.1570001 -0.069465935 0.29594555 -0.098346531 0.3195017
-12.722 8.6029997 -2.155 -0.060322609 0.32077235 -0.1158374 0.34634089
-12.74 8.5559998 -2.154 -0.054400824 0.34352162 -0.1346716 0.37296513
-12.753 8.507 -2.151 -0.050337441 0.36109835 -0.15113059 0.39467242
-12.762 8.4840002 -2.1500001 -0.03995613 0.38567123 -0.17641395 0.42598203
-12.77 8.4320002 -2.1470001 -0.038812906 0.42067763 -0.2225408 0.47749403
-12.785 8.3839998 -2.145 -0.057301547 0.39731139 -0.19383171 0.44576961
-12.796 8.3339996 -2.142 -0.047648899 0.4580594 -0.29118586 0.54486513
-12.813 8.2869997 -2.1400001 -0.057099774 0.4620809 -0.30301613 0.55551589
-12.824 8.2379999 -2.138 -0.0614863 0.48408946 -0.36728162 0.61075276
-12.851 8.198 -2.138 -0.049824793 0.49708503 -0.42009908 0.65273213
-12.857 8.1739998 -2.1370001 -0.014700603 0.49681145 -0.59587574 0.77595466
-12.873 8.1269999 -2.135 -0.11193543 -0.21151963 -0.065369487 0.24807915
-12.89 8.0810003 -2.1329999 -0.11500224 -0.17017332 -0.04776302 0.2108691
-12.909 8.0369997 -2.132 -0.094030149 -0.19423923 -0.052712947 0.22214679
-12.937 7.9980001 -2.1329999 -0.087646767 -0.17505708 -0.043249756 0.2004931
-10.72 9.401 -2.1389999 0.42123109 0.16351768 -0.73006535 0.85858554
-10.73 9.3800001 -2.138 0.42202798 0.14788969 -0.73790348 0.86283284
-10.761 9.3479996 -2.138 0.42074218 0.12936653 -0.74936974 0.86908841
-10.781 9.3059998 -2.1370001 0.41961661 0.10776696 -0.75990379 0.874726
-10.811 9.2729998 -2.1370001 0.41917863 0.076189071 -0.76976585 0.87980396
-10.829 9.2299995 -2.1340001 0.41804549 0.037227012 -0.77750301 0.88354897
-10.841 9.1809998 -2.131 0.41588041 0.0082890363 -0.78167534 0.88546121
-10.867 9.1450005 -2.1300001 0.40557796 -0.020530131 -0.7943747 0.89215815
-10.874 9.1210003 -2.1289999 0.40559778 -0.037961908 -0.79188967 0.89052784
-10.892 9.0780001 -2.1270001 -0.3843773 0.098786503 -0.19566223 0.44247982
-10.92 9.0439997 -2.1270001 -0.39641163 0.15800166 -0.23683065 0.48805273
-10.93 8.9949999 -2.1229999 -0.39766246 0.26736185 -0.34461045 0.59023231
-10.946 8.9499998 -2.1199999 -0.3811101 0.31146726 -0.38984862 0.62788433
-10.973 8.915 -2.1199999 -0.36923051 0.30492261 -0.34268543 0.58884823
-10.984 8.8669996 -2.1159999 -0.33186823 0.38058513 -0.51938313 0.72438967
-11.009 8.8299999 -2.1159999 -0.33713776 0.37426731 -0.4706935 0.68941295
-11.012 8.8039999 -2.1140001 -0.31863672 0.39094391 -0.52071416 0.72492051
-11.033 8.7639999 -2.112 -0.29854396 0.40658215 -0.51674074 0.72212088
-11.053 8.7229996 -2.1110001 -0.26358584 0.41556814 -0.61173403 0.78510696
-11.072 8.6820002 -2.109 -0.25122157 0.41980079 -0.62295836 0.79209977
-11.087 8.6379995 -2.1070001 -0.23930722 0.42906046 -0.61415434 0.78647721
-11.12 8.6079998 -2.108 -0.2426732 0.4333382 -0.58644474 0.76849836
-11.127 8.5570002 -2.1040001 -0.21047816 0.41924065 -0.68400103 0.82941014
-11.15 8.5469999 -2.1059999 -0.23489819 0.43572903 -0.59369123 0.77298528
-11.161 8.5 -2.1029999 -0.20123062 0.42595139 -0.67829472 0.82584023
-11.194 8.4700003 -2.1040001 -0.19722827 0.44397679 -0.63357186 0.79839069
-11.203 8.4209995 -2.0999999 -0.16574185 0.42203563 -0.71939319 0.85035932
-11.231 8.3870001 -2.1010001 -0.1520673 0.41703397 -0.73803687 0.86124343
-11.248 8.3450003 -2.099 0.14565776 -0.38905388 -0.22803846 0.47389939
-11.271 8.3070002 -2.098 0.14234756 -0.3880859 -0.22477916 0.47053072
-11.265 8.276 -2.095 0.12044652 -0.36887088 -0.18990415 0.43201467
-11.302 8.2480001 -2.0969999 0.12131017 -0.38005483 -0.2042129 0.44817492
-11.323 8.2089996 -2.096 0.10196958 -0.37116426 -0.18618289 0.42758012
-11.349 8.1739998 -2.096 0.098285846 -0.36193624 -0.17427376 0.41355687
-11.365 8.1309996 -2.0940001 0.094798557 -0.3522453 -0.16261598 0.39938387
-11.397 8.1000004 -2.095 0.093713962 -0.34412989 -0.15390354 0.38845077
-11.414 8.0579996 -2.0940001 0.093058221 -0.31728539 -0.12852642 0.35475188
-11.436 8.0200005 -2.0929999 0.098770231 -0.30398229 -0.11869961 0.34095511
-11.434 7.9920001 -2.0899999 0.08762145 -0.28721994 -0.1031239 0.31750172
-11.456 7.954 -2.0899999 0.092298307 -0.26736006 -0.090164185 0.29686689
-11.479 7.9169998 -2.089 0.095108658 -0.25493136 -0.082726717 0.28439298
-11.496 7.875 -2.0880001 0.10824527 -0.24387243 -0.079039335 0.27827686
-11.509 7.8309999 -2.085 0.11346974 -0.22984147 -0.072301 0.26632673
-11.53 7.7930002 -2.085 0.1283702 -0.20745999 -0.064710766 0.25240055
-11.533 7.7420001 -2.0810001 0.1162068 -0.1803087 -0.049236596 0.22008973
-11.557 7.7319999 -2.0829999 0.13236071 -0.17112489 -0.049868554 0.22201343
-11.571 7.6890001 -2.0810001 0.13974212 -0.15424301 -0.045746177 0.21309969
-11.587 7.6469998 -2.079 0.14832047 -0.13918638 -0.043354809 0.20796983
-11.596 7.6009998 -2.0769999 0.16384049 -0.12113053 -0.043171614 0.20827889
-11.612 7.559 -2.075 0.18450513 -0.11028931 -0.047998518 0.22024925
-11.609 7.5050001 -2.0699999 0.18379664 -0.091385335 -0.043303818 0.20978014
-11.624 7.4640002 -2.0680001 0.18732443 -0.075074062 -0.041563451 0.20604387
