# .PCD v0.7 - Point Cloud Data file format
VERSION 0.7
FIELDS x y z normal_x normal_y normal_z curvature
SIZE 4 4 4 4 4 4 4
TYPE F F F F F F F
COUNT 1 1 1 1 1 1 1
WIDTH 283
HEIGHT 1
VIEWPOINT 0 0 0 1 0 0 0
POINTS 283
DATA ascii
18.531 -10.538 0.93000001 0.026106162 -0.27566344 -0.051290601 0.28160715
18.527 -10.498 0.92900002 0.052163322 -0.25555137 -0.043410957 0.26440883
18.552999 -10.435 0.92900002 0.11670879 -0.22707796 -0.042045712 0.25875312
18.613001 -10.393 0.93000001 0.13763012 -0.21766004 -0.043882936 0.26123485
18.764999 -9.4940004 0.92000002 -0.16722877 0.36203825 -0.27211624 0.48278818
19.027 -9.552 0.92900002 -0.11678829 0.2282137 -0.10046533 0.27534392
19.093 -9.5100002 0.93000001 -0.14727981 0.40127841 -0.34353709 0.5483917
19.323 -9.4729996 0.93699998 -0.26785076 0.32602927 -0.3161158 0.52722698
19.566 -9.5539999 0.94499999 -0.33665529 0.019718353 -0.14422932 0.36678019
18.409 -10.382 0.78899997 0.10837585 -0.27551949 -0.062219441 0.30253527
18.493 -10.391 0.79100001 0.22774652 -0.24642512 -0.092319071 0.34801814
18.691 -10.426 0.79699999 0.2569164 -0.23957865 -0.10585442 0.36689115
19.316999 -10.617 0.81400001 0.21650629 -0.42965138 -0.2445147 0.53968763
19.253 -10.504 0.81099999 0.25187752 -0.2901324 -0.13104817 0.4059467
18.278 -9.8950005 0.77999997 0.36521307 -0.17608856 -0.16907674 0.43928885
18.275 -9.8199997 0.77899998 0.27925798 -0.13260239 -0.084433883 0.32046449
18.455999 -9.8800001 0.78399998 0.3856563 -0.2061438 -0.20695025 0.48379174
18.426001 -9.7889996 0.78200001 0.39484906 -0.20939675 -0.22128358 0.49871755
18.723 -9.8719997 0.79000002 0.27993193 -0.14015135 -0.086388826 0.32475734
18.802 -9.8389997 0.792 0.38770014 -0.15694037 -0.18765199 0.45842659
18.808001 -9.7670002 0.79100001 0.38576731 -0.14651521 -0.1819517 0.45098731
18.805 -9.6899996 0.79000002 0.33228856 -0.10343012 -0.11876604 0.36772117
18.823999 -9.625 0.79000002 0.33434296 -0.076817825 -0.11756372 0.36263952
18.790001 -9.5699997 0.78799999 0.38372523 -0.22375882 -0.21516898 0.49356937
18.919001 -9.5620003 0.79100001 0.37832084 -0.074744403 -0.15972155 0.41740191
19.030001 -9.5430002 0.79400003 0.47943896 -0.07909742 -0.32610685 0.58520406
19.153 -9.5290003 0.796 0.49848804 0.062007882 -0.51206636 0.71731949
19.535 -9.6440001 0.80699998 0.49955606 0.052872702 -0.52511287 0.72670168
19.485001 -9.5430002 0.80500001 0.49806729 0.014003772 -0.5908888 0.77292734
19.247 -9.3509998 0.79699999 -0.22243169 0.38946858 -0.42576933 0.61841828
19.313999 -9.309 0.79799998 -0.26120144 0.3598142 -0.39448929 0.59440243
18.605 -10.477 0.69499999 0.30021742 -0.25451419 -0.14495778 0.41942903
18.533001 -10.36 0.69199997 0.34082794 -0.23744926 -0.17248836 0.44977558
18.509001 -10.309 0.69099998 0.36117813 -0.19486384 -0.17203251 0.44499072
19.298 -10.51 0.70899999 0.29650006 -0.31532881 -0.18450445 0.47051719
19.32 -10.443 0.708 0.31013107 -0.30840027 -0.19172227 0.47754523
19.099001 -10.247 0.70200002 0.3617169 -0.27484739 -0.22206959 0.50566304
18.388 -9.7919998 0.68300003 0.41642573 -0.19988091 -0.24805567 0.52430373
18.459 -9.7559996 0.68400002 0.42972541 -0.2247078 -0.289882 0.56496823
18.775 -9.8850002 0.69199997 0.43406358 -0.17396662 -0.26313215 0.53657627
18.834999 -9.8400002 0.69199997 0.44353276 -0.16544215 -0.27643293 0.54818571
18.853001 -9.7749996 0.69199997 0.45156458 -0.16195375 -0.29103976 0.56110936
18.877001 -9.7119999 0.69199997 0.45737669 -0.16116004 -0.30356759 0.57211822
18.875 -9.6359997 0.69099998 0.47634047 -0.16892327 -0.36165249 0.6214723
18.931999 -9.5900002 0.69199997 0.48212823 -0.11360691 -0.34439415 0.60329223
19.034 -9.566 0.69300002 0.49645549 -0.042713225 -0.37856954 0.62578541
19.297001 -9.6610003 0.69999999 0.49390039 0.081056163 -0.4982467 0.7062276
19.544001 -9.7069998 0.70499998 0.49684596 0.064701036 -0.52635437 0.72669876
19.243 -9.4829998 0.69700003 0.49759433 0.058682144 -0.54110497 0.73745394
19.316999 -9.4440002 0.69800001 0.50363195 0.017467339 -0.55238563 0.74771661
19.43 -9.4239998 0.69999999 0.50563312 -0.055919442 -0.5690037 0.76325423
19.259001 -9.2659998 0.69499999 -0.23727876 0.37933812 -0.41402358 0.60960162
18.570999 -10.583 0.53299999 0.26730031 -0.36492807 -0.20584983 0.49698702
18.610001 -10.528 0.53299999 0.3735567 -0.23864508 -0.20998949 0.49050146
18.608 -10.45 0.53200001 0.40948454 -0.1894616 -0.23036674 0.50659859
18.58 -10.357 0.53100002 0.44482806 -0.1342034 -0.26457494 0.53467977
19.295 -10.559 0.542 0.3694742 -0.3328166 -0.29421815 0.57779098
19.285999 -10.475 0.542 0.39817503 -0.29192883 -0.29453105 0.57490379
19.309999 -10.41 0.54100001 0.40492299 -0.28800887 -0.30326575 0.58213562
19.351 -10.354 0.542 0.40574563 -0.28184858 -0.29780442 0.5768497
18.988001 -10.006 0.53399998 0.48112145 -0.18439823 -0.39644673 0.65011579
18.941999 -9.9049997 0.53299999 0.48128998 -0.17969348 -0.39154515 0.64593917
18.801001 -9.7939997 0.52999997 0.47310022 -0.17129806 -0.35269457 0.61445934
18.825001 -9.7309999 0.52999997 0.472689 -0.16880734 -0.34944162 0.6115883
18.893 -9.691 0.53100002 0.47424904 -0.1598984 -0.34737605 0.60922062
18.93 -9.6359997 0.53100002 0.48911706 -0.1453805 -0.38973531 0.64207834
19.007999 -9.6009998 0.53200001 0.49702585 -0.096683219 -0.39169276 0.64016056
19.150999 -9.5970001 0.53399998 0.50504202 0.0058500022 -0.44360811 0.6722275
19.049999 -9.4720001 0.53100002 0.46239051 0.16636574 -0.47178662 0.68122327
19.117001 -9.4680004 0.53200001 0.48486587 0.11150137 -0.48252198 0.69307643
19.129 -9.3990002 0.53200001 0.51078212 -0.038494319 -0.48915851 0.70827693
19.254999 -9.3859997 0.53399998 0.4910062 0.092566267 -0.50627047 0.71131247
19.377001 -9.3699999 0.53500003 0.4965243 0.057931371 -0.55401945 0.7462104
19.556999 -9.382 0.53799999 0.50945967 -0.073955923 -0.52009624 0.7317915
19.365999 -9.2159996 0.53399998 -0.25223961 0.3750231 -0.44136712 0.6317215
18.584999 -10.587 0.42300001 0.28888366 -0.38633078 -0.2534706 0.54493356
18.570999 -10.502 0.42300001 0.43351668 -0.1751077 -0.26209372 0.53599679
18.621 -10.453 0.42300001 0.45475835 -0.13019463 -0.28254879 0.55098969
18.715 -10.429 0.42399999 0.46185014 -0.13175602 -0.2985 0.56547982
19.252001 -10.491 0.42899999 0.44052508 -0.24647838 -0.33480775 0.60573107
19.202 -10.424 0.428 0.44086546 -0.25028703 -0.3406266 0.61076379
19.254 -10.374 0.428 0.44430271 -0.2531988 -0.35463732 0.62232
19.337999 -10.341 0.42899999 0.42993245 -0.27756029 -0.34883165 0.61932635
18.729 -9.8660002 0.421 0.47904184 -0.1724162 -0.37421826 0.63186055
18.780001 -9.8170004 0.421 0.480667 -0.18365306 -0.39390269 0.6480189
18.878 -9.7930002 0.42199999 0.48145947 -0.18122822 -0.39447534 0.64827287
18.895 -9.7639999 0.42199999 0.48161247 -0.17930487 -0.39277899 0.64682001
18.903 -9.6929998 0.42199999 0.4844555 -0.16771805 -0.39175752 0.64521348
18.997 -9.6660004 0.42300001 0.49401265 -0.15181106 -0.42247677 0.66751909
19.051001 -9.618 0.42300001 0.50717264 -0.087316945 -0.45226488 0.68512177
19.106001 -9.5710001 0.42300001 0.508641 -0.016725045 -0.46182501 0.68722469
19.177 -9.5310001 0.42399999 0.49175012 0.089633964 -0.50492895 0.71049678
19.097 -9.4169998 0.42199999 0.48410502 0.11469428 -0.49139076 0.69926918
19.046 -9.3179998 0.42199999 -0.30519691 0.33762017 -0.54743505 0.71191126
19.07 -9.2919998 0.42199999 -0.27421832 0.36282703 -0.53178263 0.69973701
19.172001 -9.2679996 0.42199999 -0.18953687 0.4107188 -0.52648276 0.69411689
18.539 -10.579 0.27399999 0.35540468 -0.34778687 -0.29155183 0.57642925
18.549999 -10.508 0.27399999 0.46932954 -0.10235602 -0.30581236 0.56944549
18.563 -10.477 0.27399999 0.47735703 -0.086907342 -0.32224381 0.58246344
18.594 -10.418 0.27399999 0.48173386 -0.065252453 -0.33085793 0.58804113
18.691 -10.395 0.27399999 0.48513511 -0.085201085 -0.34414375 0.60087454
19.190001 -10.438 0.27599999 0.47425738 -0.20103754 -0.38765076 0.64467764
19.188 -10.358 0.27599999 0.48347223 -0.1810099 -0.40240586 0.65455365
19.202999 -10.289 0.27500001 0.48575395 -0.17850436 -0.41093653 0.66082489
19.261 -10.281 0.27599999 0.48541176 -0.1873275 -0.42366433 0.67097515
19.216 -10.102 0.27500001 0.48943061 -0.17283884 -0.42418358 0.67033374
18.950001 -9.8859997 0.27399999 0.4855552 -0.17406002 -0.40460068 0.6555627
18.886 -9.7770004 0.27399999 0.48385671 -0.17860383 -0.40247995 0.65422225
18.882999 -9.7010002 0.27399999 0.47997543 -0.1892277 -0.39869219 0.65202683
18.971001 -9.6700001 0.27399999 0.49001828 -0.15905297 -0.40848196 0.65747494
18.931 -9.6120005 0.27399999 0.48859805 -0.16166529 -0.40455699 0.65462208
18.714001 -9.4280005 0.273 0.38528576 -0.3572616 -0.38229337 0.64979166
18.971001 -9.4829998 0.27399999 0.50538874 -0.092271134 -0.43898576 0.67575163
18.959 -9.4029999 0.27399999 0.49485442 -0.15044312 -0.42646867 0.67036521
18.914 -9.3070002 0.273 -0.20999402 0.3959946 -0.57208616 0.72676808
19.034 -9.2919998 0.27399999 -0.28352308 0.35250688 -0.56225175 0.72164637
19.051001 -9.2259998 0.27399999 -0.26613492 0.36654341 -0.55099791 0.71328855
18.655001 -10.597 0.17299999 0.41723791 -0.31373289 -0.37465763 0.6425606
18.688999 -10.54 0.17299999 0.48676229 -0.10489884 -0.35553026 0.61183578
18.695 -10.465 0.17299999 0.48905057 -0.062078215 -0.35294539 0.60629582
18.728001 -10.446 0.17299999 0.49093607 -0.066073529 -0.35973752 0.61220503
18.851999 -10.437 0.17299999 0.49219069 -0.096023276 -0.37153482 0.6241076
19.318001 -10.458 0.17200001 0.47565767 -0.21879525 -0.42667955 0.67540878
19.319 -10.38 0.17200001 0.48730108 -0.18666887 -0.43541887 0.67963022
19.339001 -10.312 0.17299999 0.49393886 -0.15840599 -0.43105453 0.67444503
19.424 -10.319 0.17200001 0.49261987 -0.17247975 -0.44886941 0.68840927
19.351999 -10.203 0.17299999 0.49678355 -0.15727325 -0.45456395 0.6914891
19.198999 -10.046 0.17299999 0.49457607 -0.15787958 -0.43518716 0.67743582
19.101 -9.9180002 0.17299999 0.49357471 -0.15800068 -0.42848897 0.67244554
18.875999 -9.7259998 0.17399999 0.48052138 -0.18413052 -0.39420569 0.64823067
18.879999 -9.6529999 0.17399999 0.48197126 -0.17877993 -0.3939476 0.64765209
19.021 -9.6499996 0.17299999 0.48771116 -0.16568053 -0.40485957 0.65515149
18.816 -9.5089998 0.17399999 0.46698669 -0.2145066 -0.37994879 0.63910151
19.155001 -9.6049995 0.17299999 0.50928825 -0.049331173 -0.45790839 0.68664998
19.171 -9.5380001 0.17299999 0.50584555 0.02240964 -0.48303506 0.69978911
19.201 -9.4770002 0.17299999 0.49478376 0.078711197 -0.50826675 0.71368164
19.374001 -9.4870005 0.17299999 0.48798499 0.099697605 -0.52673864 0.72492933
18.666 -10.506 0.037 0.49284849 -0.12635908 -0.39014488 0.64115465
18.674999 -10.434 0.037 0.49718788 -0.072964534 -0.38491622 0.63299298
18.719999 -10.382 0.037 0.49535894 -0.071617022 -0.37708658 0.62666082
18.764 -10.368 0.037 0.49844894 -0.077711783 -0.3917371 0.63870841
19.237 -10.394 0.034000002 0.49740598 -0.14609282 -0.43736163 0.67826325
19.245001 -10.321 0.034000002 0.50152266 -0.12679709 -0.44315553 0.6811676
19.306999 -10.276 0.034000002 0.50338364 -0.11937817 -0.45087519 0.68624681
19.375 -10.234 0.033 0.50437814 -0.12201579 -0.46940127 0.69973046
19.288 -10.15 0.034000002 0.50471991 -0.11877689 -0.46601778 0.69715327
19.101999 -9.9750004 0.035999998 0.49513969 -0.15320247 -0.43191719 0.67467535
19.028999 -9.8599997 0.037 0.49178717 -0.16069233 -0.42062813 0.66678685
18.631001 -9.5799999 0.041000001 0.45904958 -0.21507223 -0.35317197 0.61782926
18.665001 -9.5229998 0.041000001 0.46326134 -0.21819767 -0.37122205 0.63247693
19.040001 -9.6400003 0.037999999 0.49918315 -0.1305669 -0.42966646 0.67144978
18.919001 -9.5030003 0.039000001 0.49435785 -0.14195526 -0.41259772 0.65937686
18.805 -9.3719997 0.039999999 0.43513069 -0.29066473 -0.39576399 0.65608978
18.854 -9.3599997 0.039999999 0.44046947 -0.28124872 -0.39591849 0.65564144
18.979 -9.3470001 0.039000001 0.50443339 -0.1074177 -0.44462052 0.68093979
18.975 -9.2720003 0.039000001 0.4434638 -0.28743839 -0.42851511 0.68037206
18.666 -10.564 -0.094999999 0.45555231 -0.26941991 -0.43629724 0.68590838
18.667999 -10.487 -0.094999999 0.49047637 -0.17161125 -0.42806956 0.67324662
18.702999 -10.43 -0.094999999 0.49763641 -0.13359097 -0.42201337 0.66602087
18.764999 -10.387 -0.094999999 0.50082111 -0.12330715 -0.43260351 0.6731807
18.757 -10.306 -0.093999997 0.50138587 -0.10469095 -0.41975707 0.66222656
19.233999 -10.372 -0.101 0.50249428 -0.1332759 -0.46655062 0.69852161
19.221001 -10.287 -0.1 0.5067156 -0.10079841 -0.46277213 0.69359863
19.164 -10.179 -0.098999999 0.50657886 -0.094411217 -0.45304352 0.68613702
19.225 -10.134 -0.098999999 0.50709093 -0.096019857 -0.46061918 0.69175941
19.177 -10.032 -0.097999997 0.50425929 -0.11864606 -0.45895353 0.69209296
19.059 -9.8950005 -0.094999999 0.49982062 -0.13688964 -0.4436419 0.68218589
19.025 -9.8389997 -0.094999999 0.50209165 -0.12692995 -0.44898954 0.68541873
18.778 -9.6370001 -0.090000004 0.4832029 -0.16505378 -0.38376758 0.638753
19.134001 -9.7440004 -0.094999999 0.50808972 -0.0965278 -0.47873884 0.70474368
18.858 -9.5290003 -0.090999998 0.49236387 -0.1480715 -0.40838546 0.65660191
18.886999 -9.4689999 -0.090999998 0.50171685 -0.11105411 -0.42693108 0.66807407
18.987 -9.4449997 -0.092 0.50907415 -0.054313388 -0.45447487 0.68458295
19.150999 -9.4510002 -0.093999997 0.49887401 0.059930079 -0.52255893 0.72493774
19.347 -9.5100002 -0.097000003 0.49318147 0.077242643 -0.54236376 0.73712474
18.754 -10.517 -0.24600001 0.48004568 -0.21591069 -0.45293242 0.69441277
18.797001 -10.464 -0.24600001 0.48805705 -0.18961686 -0.44859594 0.68948716
18.827999 -10.404 -0.24600001 0.49739125 -0.15010677 -0.44372544 0.68324399
18.796 -10.309 -0.244 0.50028998 -0.13159236 -0.43893528 0.67843258
18.952999 -10.241 -0.24699999 0.50282985 -0.11908758 -0.44426033 0.68145943
19.228001 -10.351 -0.25299999 0.500723 -0.14510572 -0.47309741 0.70398891
19.259001 -10.289 -0.25299999 0.50545472 -0.11599538 -0.47194445 0.70119256
19.285999 -10.226 -0.25299999 0.50699216 -0.10126384 -0.46785167 0.69726652
19.24 -10.124 -0.25099999 0.5073868 -0.088210031 -0.45581862 0.68774486
19.118999 -9.9840002 -0.24699999 0.50820959 -0.084898114 -0.46279648 0.69257867
18.954 -9.8219995 -0.243 0.5108068 -0.046811227 -0.50213271 0.71781063
19.023001 -9.7819996 -0.243 0.51028073 -0.06546624 -0.48263597 0.70541459
19.101 -9.7840004 -0.245 0.510656 -0.061016377 -0.49339771 0.71269476
18.931999 -9.6219997 -0.23999999 0.51048458 -0.03317447 -0.51407295 0.72523516
18.836 -9.4989996 -0.237 0.50894028 -0.0058992989 -0.51708257 0.72555453
18.867001 -9.441 -0.237 0.50500047 0.02633509 -0.52379757 0.72806793
18.915001 -9.3900003 -0.23800001 0.50200367 0.046365213 -0.5165444 0.72178632
19.1 -9.408 -0.241 0.50671577 0.018035874 -0.51012379 0.71924436
18.823999 -10.46 -0.35699999 0.48278323 -0.20689066 -0.44984633 0.6915527
18.827 -10.423 -0.35600001 0.49021059 -0.18308717 -0.45149419 0.69113988
18.815001 -10.34 -0.35499999 0.4970865 -0.15810868 -0.45857695 0.69454026
19.226999 -10.408 -0.36500001 0.48648414 -0.20275374 -0.49606583 0.7237798
19.236 -10.336 -0.36500001 0.49954128 -0.15345362 -0.48953784 0.71605641
19.274 -10.278 -0.36500001 0.50262398 -0.1380291 -0.4927471 0.71727443
19.333 -10.231 -0.366 0.50670809 -0.11078154 -0.50348216 0.72285539
19.132999 -10.087 -0.359 0.50675827 -0.096379727 -0.45659402 0.68889123
19.066999 -9.9759998 -0.35600001 0.51044685 -0.04986776 -0.48003927 0.70248163
18.945 -9.8369999 -0.352 0.51002592 -0.035322968 -0.52335232 0.73162276
18.951 -9.7650003 -0.35100001 0.50913781 -0.021541981 -0.53002149 0.73526055
19.096001 -9.7639999 -0.35499999 0.51046222 -0.029407538 -0.5068391 0.71994609
19.014 -9.6470003 -0.35100001 0.50853121 -0.0097105876 -0.52907759 0.7339083
19.186001 -9.658 -0.35499999 0.51064271 -0.038488619 -0.48313552 0.70402932
19.378 -9.7159996 -0.361 0.51068044 -0.03749422 -0.48930937 0.70825416
19.165001 -9.5340004 -0.35299999 0.50988942 -0.014351141 -0.50487429 0.71769857
18.841 -10.447 -0.48500001 0.46600115 -0.25031987 -0.54506773 0.7595498
18.839001 -10.369 -0.484 0.4864054 -0.1835081 -0.57252848 0.77333969
18.878 -10.352 -0.48500001 0.49829882 -0.13657469 -0.56481916 0.76549006
19.033001 -10.359 -0.48899999 0.49312273 -0.1796135 -0.48309362 0.71330953
19.204 -10.375 -0.49399999 0.48762661 -0.19898862 -0.50379705 0.72882622
19.188999 -10.289 -0.493 0.5013842 -0.14482403 -0.49154633 0.71692258
19.167 -10.199 -0.491 0.50444734 -0.12602183 -0.48120075 0.70845097
19.025999 -10.047 -0.484 0.50866956 -0.026840184 -0.53759646 0.74059099
18.958 -9.9350004 -0.48100001 0.50645798 -0.014818273 -0.55440056 0.75105214
18.959 -9.8599997 -0.47999999 0.50579959 -0.0094493516 -0.55727637 0.75264829
19.033001 -9.8610001 -0.48199999 0.50767505 -0.0071090274 -0.53587401 0.73820418
18.986 -9.7609997 -0.479 0.5077067 -0.011367854 -0.54074311 0.74182105
19.013 -9.6990004 -0.479 0.50747299 -0.0001590848 -0.53263664 0.7356838
19.159 -9.698 -0.48300001 0.50859433 -0.0041770115 -0.51978219 0.72722703
19.181999 -9.6339998 -0.48300001 0.51007622 -0.017774802 -0.50433433 0.71752828
19.157 -9.5459995 -0.48100001 0.50956297 -0.0093614757 -0.50347912 0.71640301
18.927 -10.469 -0.63 0.46476954 -0.21975534 -0.61890119 0.80457556
18.903999 -10.379 -0.62699997 0.46628895 -0.21036679 -0.62555563 0.80808377
18.940001 -10.321 -0.62800002 0.47908738 -0.12694812 -0.65405244 0.82062483
19.02 -10.287 -0.63 0.48838761 -0.077763483 -0.64218926 0.81054097
19.202999 -10.347 -0.63700002 0.48331013 -0.21206011 -0.50575548 0.73099023
19.16 -10.247 -0.634 0.50365388 -0.11502399 -0.5490247 0.75387388
19.115999 -10.146 -0.63 0.50131398 -0.054113001 -0.59395921 0.77912223
19.068001 -10.044 -0.62699997 0.50142223 -0.02851722 -0.59172124 0.77612597
19.059999 -9.9639997 -0.625 0.50251001 -0.035336014 -0.58737165 0.77380252
19.091999 -9.9040003 -0.625 0.50508171 -0.022314258 -0.56885093 0.76104987
19.167 -9.8669996 -0.62699997 0.50721169 -0.015375517 -0.54851443 0.74724036
19.271999 -9.882 -0.63099998 0.50973541 -0.032567631 -0.52725476 0.73409021
19.450001 -9.8970003 -0.63700002 0.50878841 -0.089686014 -0.48379257 0.70778841
19.028999 -10.527 -0.764 0.48289156 -0.21358339 -0.50656921 0.73172027
18.952999 -10.408 -0.75800002 0.47189465 -0.14040303 -0.66758811 0.82950073
18.958 -10.333 -0.75700003 0.4723503 -0.10140177 -0.68218619 0.83592772
19.025 -10.292 -0.75800002 0.47060797 -0.083309382 -0.69056839 0.83981961
19.131001 -10.272 -0.76200002 0.48567832 -0.087054342 -0.64900845 0.81527531
19.105 -10.219 -0.75999999 0.48402336 -0.060018633 -0.65836227 0.81934226
19.091 -10.135 -0.75800002 0.48226434 -0.071764208 -0.66227394 0.82239634
19.051001 -10.037 -0.75400001 0.48387292 -0.083689645 -0.65543127 0.81897926
19.075001 -9.9729996 -0.75400001 0.4919768 -0.076392986 -0.63053799 0.80340225
19.128 -9.9239998 -0.755 0.49672371 -0.061460033 -0.61494517 0.79288673
19.224001 -9.8979998 -0.75800002 0.50575256 -0.068464652 -0.5659492 0.76208371
19.139999 -10.654 -0.89600003 0.48248366 -0.21358688 -0.4738839 0.70920783
18.98 -10.41 -0.884 0.4502351 -0.085002482 -0.73304242 0.86445832
18.952 -10.317 -0.88 0.44522354 -0.10038196 -0.73944896 0.86895645
18.982 -10.257 -0.88 0.44831672 -0.11612974 -0.72975355 0.86429983
19.018 -10.199 -0.88 0.45594585 -0.094244972 -0.72047687 0.85782027
19.049999 -10.139 -0.88 0.46515498 -0.094243586 -0.70110059 0.8466363
19.034 -10.054 -0.87699997 0.46956599 -0.080628127 -0.69370681 0.84155941
19.049999 -10.024 -0.87699997 0.47066718 -0.079477817 -0.69130874 0.84009051
19.073999 -9.96 -0.87699997 0.46969336 -0.094675787 -0.69067097 0.84059608
19.153 -9.9250002 -0.88 0.48088741 -0.10479514 -0.6583541 0.82198834
19.280001 -9.9139996 -0.88499999 0.50552386 -0.087374821 -0.5589661 0.75870401
18.862 -11.265 -1.039 0.44720048 -0.19631557 -0.30143821 0.57392776
18.805 -11.151 -1.033 0.48436528 -0.1867747 -0.41305581 0.66340756
18.794001 -11.064 -1.03 0.48267612 -0.19132078 -0.41124958 0.66234893
18.749001 -10.959 -1.025 0.48139527 -0.11740877 -0.65166962 0.81865716
18.785 -10.901 -1.025 0.44176006 -0.07710126 -0.74905843 0.87303209
18.781 -10.82 -1.023 0.39482397 -0.057255853 -0.81718075 0.90936714
18.822001 -10.804 -1.024 0.42236111 -0.076541096 -0.77970701 0.89005083
18.837 -10.734 -1.023 0.41535902 -0.071730264 -0.79011881 0.89552003
18.924999 -10.705 -1.026 0.4668434 -0.1128896 -0.69202501 0.84236896
18.875 -10.599 -1.021 0.38127241 -0.042138629 -0.83288133 0.91697091
19.077 -10.634 -1.0319999 0.48755604 -0.19996968 -0.49404952 0.72234595
18.910999 -10.464 -1.0190001 0.39350441 -0.039494149 -0.8189038 0.90940034
19.011999 -10.442 -1.024 0.41823056 -0.059634566 -0.78692782 0.89315647
18.910999 -10.348 -1.016 0.40872979 -0.068627253 -0.79946274 0.90050566
18.891001 -10.259 -1.013 -0.35354951 0.041179653 -0.16706586 0.39319718
18.917999 -10.197 -1.012 0.41622904 -0.10265188 -0.78505206 0.89447796
18.927 -10.125 -1.011 0.41430983 -0.12195326 -0.78344703 0.89460295
18.948 -10.06 -1.01 0.41613129 -0.1064163 -0.78448808 0.89437759
18.974001 -9.9980001 -1.01 0.43050978 -0.099728324 -0.76438653 0.88293326
19.039 -9.9560003 -1.012 0.43458086 -0.11601306 -0.75411606 0.87807208
19.073999 -9.9359999 -1.013 0.43161106 -0.11305614 -0.7597608 0.88108242
19.153 -9.901 -1.016 0.4487237 -0.12312369 -0.72704053 0.86319196
19.437 -9.9700003 -1.0319999 0.48526666 -0.19973731 -0.54029489 0.75319141
