# .PCD v0.7 - Point Cloud Data file format
VERSION 0.7
FIELDS x y z normal_x normal_y normal_z curvature
SIZE 4 4 4 4 4 4 4
TYPE F F F F F F F
COUNT 1 1 1 1 1 1 1
WIDTH 161
HEIGHT 1
VIEWPOINT 0 0 0 1 0 0 0
POINTS 161
DATA ascii
-16.205 28.82 1.327 -0.32103667 0.17586619 -0.14322072 0.39307207
-16.287001 28.753 1.327 -0.39533344 0.21502313 -0.2507053 0.51514721
-16.398001 28.738001 1.3279999 -0.3023583 0.19440153 -0.13478729 0.38390118
-16.836 29.291 1.352 -0.11140996 0.27762645 -0.086562395 0.31141883
-16.802999 29.021999 1.3430001 -0.15682146 0.21892524 -0.064899296 0.27700749
-16.6 28.466999 1.323 -0.3527523 0.33342579 -0.3189474 0.58080494
-16.936001 28.833 1.34 -0.10528645 0.20049024 -0.043256372 0.23054865
-16.806 28.408001 1.325 -0.1877017 0.075289048 -0.033432275 0.20498313
-16.690001 28.111 1.3150001 0.32252115 -0.33844712 -0.3899124 0.60876763
-17.209 28.173 1.325 0.15856595 -0.23351111 -0.10460642 0.30102009
-17.371 28.041 1.325 0.022795573 -0.30651796 -0.11886704 0.3295486
-17.464001 27.993 1.325 -0.078762382 -0.29668641 -0.11165383 0.32663882
-16.316 29.155001 1.127 0.40245196 -0.12697975 -0.73771298 0.84988934
-16.292 28.898001 1.12 0.40017352 -0.12693901 -0.74380016 0.85410249
-16.399 28.875999 1.1210001 -0.36943215 0.2037843 -0.20595285 0.4694941
-16.527 28.891001 1.123 -0.30850598 0.21805717 -0.1512084 0.4069261
-16.664 29.024 1.128 -0.32907841 0.2718493 -0.20693776 0.4743605
-16.931999 29.278 1.138 -0.2153216 0.3494055 -0.18538082 0.45034835
-16.615 28.521 1.1160001 0.39787298 -0.23636875 -0.63166714 0.78305584
-16.601 28.292999 1.11 -0.38892201 0.3362124 -0.42550305 0.66734695
-16.707001 28.268 1.1109999 -0.38345909 0.33849528 -0.4035638 0.65152413
-16.669001 28.003 1.104 -0.34980667 0.38569281 -0.50692993 0.72670603
-16.827999 28.07 1.108 -0.37112966 0.35554281 -0.40993929 0.65741777
-17.014 28.280001 1.1160001 -0.36382833 0.34856015 -0.3601743 0.61934704
-17.087999 28.201 1.115 0.30159464 -0.36187214 -0.42895734 0.63711476
-17.139999 28.087 1.113 0.29204789 -0.30876216 -0.28012276 0.50901353
-17.344 28.223 1.119 0.39549404 -0.14321874 -0.27993315 0.50526202
-17.406 28.125 1.117 0.26343361 -0.3049317 -0.24566987 0.47194734
-17.228001 27.643 1.104 -0.140709 0.48668006 -0.61316115 0.79537606
-17.400999 27.726 1.108 0.022807769 0.40725946 -0.80585521 0.90320712
-16.268999 29.507 0.97600001 0.34971112 0.34242842 -0.46789446 0.67711174
-16.367001 29.573999 0.97799999 0.041535977 0.46441308 -0.30962622 0.55970806
-16.245001 28.712 0.95999998 0.41412458 -0.1527999 -0.70158064 0.82889229
-16.454 28.870001 0.96499997 0.40479153 -0.19468798 -0.67852026 0.81372559
-16.483 28.709999 0.96200001 0.41347879 -0.2024079 -0.64382112 0.79147917
-16.671 28.827999 0.96700001 -0.40912732 0.25153795 -0.30118656 0.56689495
-16.528 28.479 0.958 0.40286025 -0.23228484 -0.62495494 0.77898735
-16.716999 28.596001 0.963 0.39454931 -0.20776373 -0.67908198 0.81239599
-17.215 29.235001 0.98100001 -0.28358945 0.34916598 -0.23815629 0.50897765
-17.309 29.184 0.98100001 -0.23794241 0.37662157 -0.23364016 0.50303888
-17.410999 29.146999 0.98199999 -0.23928842 0.39508814 -0.2626673 0.53136396
-17.27 28.707001 0.97100002 -0.37598169 0.2432216 -0.22675967 0.50193518
-17.489 28.864 0.977 -0.34240252 0.26875561 -0.20925987 0.48296869
-17.237 28.25 0.96200001 0.38334396 -0.26062685 -0.59433401 0.75373197
-17.349001 28.333 0.96499997 0.38711858 -0.18389523 -0.69948846 0.82034284
-17.266001 28 0.95700002 0.3360897 -0.32939875 -0.4471007 0.64912158
-17.374001 27.978001 0.958 0.20704967 -0.38521066 -0.308492 0.53518605
-17.451 27.906 0.958 -0.031859182 0.50685424 -0.59134817 0.77949268
-16.299999 29.542999 0.72100002 0.44037521 -0.051382896 -0.69010514 0.82025337
-16.410999 29.525 0.722 -0.12637447 0.46805891 -0.33904034 0.59160626
-16.629 29.371 0.72100002 0.38725051 -0.19798924 -0.69870782 0.82301599
-16.452999 28.848 0.713 0.43180826 -0.1275271 -0.67621714 0.81239837
-16.622 28.933001 0.71499997 -0.42217258 0.2607052 -0.34576029 0.60477024
-16.955 29.299999 0.72299999 -0.32360381 0.38561442 -0.358493 0.61800903
-17.021999 29.202999 0.722 -0.25910079 0.42551604 -0.34773654 0.60755068
-16.933001 28.841 0.71600002 -0.40548232 0.26880777 -0.3038387 0.57357782
-17.028 28.898001 0.71799999 -0.37333724 0.30232459 -0.28927794 0.56076968
-17.146999 28.893 0.71899998 -0.3578583 0.30295986 -0.26536354 0.53876251
-17.101999 28.612 0.71499997 -0.383378 0.28342897 -0.27996957 0.55289567
-17.087999 28.385 0.71200001 -0.38481367 0.27293432 -0.27374452 0.5454455
-17.666 29.139 0.72600001 -0.23132655 0.44644928 -0.36841172 0.62334269
-17.412001 28.516001 0.71600002 -0.39910877 0.23342434 -0.24914959 0.52521449
-17.159 27.903999 0.70599997 -0.32569155 0.37360904 -0.33045655 0.59570146
-17.216999 27.802999 0.70499998 -0.29789606 0.41977885 -0.4009091 0.65244496
-17.275 27.798 0.70599997 -0.28617069 0.43323556 -0.42381108 0.67022574
-17.572001 28.079 0.71200001 0.36034748 0.21355547 -0.25101337 0.48832771
-17.711 28.105 0.713 0.38760331 0.194066 -0.28301877 0.51768482
-16.634001 29.523001 0.55000001 -0.069252133 0.50571096 -0.5337202 0.73850977
-16.698 29.42 0.54900002 -0.25267214 0.45274505 -0.4741177 0.70257306
-16.775 29.341 0.54900002 -0.18293472 0.48356962 -0.49560335 0.71618944
-16.834999 29.233 0.54799998 -0.27330154 0.43705127 -0.42564192 0.66848981
-16.822001 28.999001 0.546 -0.39403117 0.29214057 -0.31778651 0.58446121
-16.801001 28.756001 0.54400003 0.38895118 -0.21544179 -0.67590481 0.80903983
-16.77 28.496 0.54100001 0.39253491 -0.23264028 -0.64704257 0.79175073
-16.777 28.406 0.54100001 -0.38567051 0.29293659 -0.31084174 0.57547909
-16.886 28.386999 0.54100001 -0.37960827 0.30357486 -0.31138849 0.57725465
-17.089001 28.523001 0.54299998 -0.39919603 0.27627045 -0.30182821 0.57164943
-16.879 27.974001 0.537 -0.34102926 0.3555544 -0.32843235 0.59210443
-16.938 27.872999 0.537 -0.31886166 0.38471839 -0.34933197 0.60968339
-17.190001 28.087999 0.54000002 -0.34655264 0.34779921 -0.31469756 0.58317888
-17.32 28.101999 0.54100001 -0.26278031 0.37664589 -0.25078428 0.52326703
-17.865999 28.885 0.55000001 0.46758574 -0.072833106 -0.51022035 0.69589216
-16.551001 28.952 0.31200001 0.4240658 -0.15752552 -0.66596824 0.80508375
-16.777 29.136 0.31299999 -0.3052426 0.41386345 -0.41272628 0.65939289
-16.738001 28.858 0.31200001 0.39885584 -0.17786415 -0.69772553 0.82312971
-16.856001 28.851999 0.31200001 -0.39406261 0.30524606 -0.34252936 0.60480314
-17.174999 29.188999 0.31400001 -0.14926602 0.49344501 -0.53975141 0.74639124
-17.271 29.142 0.31400001 -0.1154457 0.49937224 -0.5538311 0.75460535
-17.072001 28.702 0.31200001 -0.4062655 0.28361845 -0.3231352 0.59152979
-16.909 28.226 0.31099999 -0.32948646 0.33030906 -0.26893717 0.53850961
-17.353001 28.761999 0.31299999 -0.38309288 0.34480989 -0.38740009 0.64477348
-17.348 28.348 0.31200001 0.18315396 0.38489506 -0.23551089 0.48698556
-16.511 29.225 0.154 0.42633671 -0.15403666 -0.65846431 0.79941571
-16.618 29.201 0.154 0.39627007 -0.22256176 -0.64958268 0.79279339
-16.735001 29.191999 0.154 0.39423969 -0.20299587 -0.67466688 0.80734605
-16.781 29.165001 0.154 -0.37942481 0.33979255 -0.37808806 0.6343286
-16.927 29.205999 0.154 -0.096990384 0.49682674 -0.59228736 0.77913302
-16.997999 29.118 0.154 -0.19230588 0.47999406 -0.54362947 0.75027251
-16.83 28.622999 0.155 -0.42206398 0.2255071 -0.2935428 0.5613901
-16.871 28.488001 0.155 -0.40908542 0.25661406 -0.30287486 0.57003057
-17.014999 28.527 0.155 -0.3962037 0.28180087 -0.30654004 0.57476592
-17.542999 29.202 0.154 -0.088765591 0.50335795 -0.55156171 0.75197661
-17.517 28.952 0.154 0.034210883 0.50842637 -0.50161588 0.71504283
-17.389 28.639 0.155 -0.41855705 0.29769057 -0.3751353 0.63603157
-17.75 29.028 0.154 0.020254575 0.50840473 -0.52953428 0.73436517
-17.895 29.059 0.154 0.14049008 0.48222142 -0.51795155 0.72149068
-16.806999 28.896999 -0.057999998 -0.3961347 0.32275033 -0.39281014 0.64450777
-16.777 28.740999 -0.056000002 0.42592776 -0.16317907 -0.64431554 0.78942031
-16.954 28.837 -0.057999998 -0.37771645 0.34677151 -0.38828775 0.6431855
-17.205 29.055 -0.059999999 -0.091335647 0.50478411 -0.54228753 0.74647504
-17.149 28.754 -0.057999998 -0.24835762 0.45388106 -0.42143434 0.66730535
-17.538 29.197001 -0.063000001 -0.042109527 0.49985701 -0.59959596 0.78175801
-17.599001 29.091999 -0.061999999 -0.025386814 0.50813609 -0.55158001 0.75039142
-17.539 28.787001 -0.059999999 0.057581335 0.50423938 -0.4476935 0.67675877
-16.691 29.004999 -0.264 -0.093008794 0.49560007 -0.58983457 0.77599931
-16.811001 29.003 -0.264 -0.11844802 0.49752378 -0.56161284 0.75958461
-16.867001 28.889999 -0.26300001 -0.13888118 0.49704295 -0.50297952 0.72064424
-16.982 28.878 -0.264 -0.060035761 0.51032555 -0.51604885 0.72824645
-17.099001 28.868999 -0.26499999 0.0027868915 0.50992435 -0.53617013 0.7399385
-17.107 28.778999 -0.264 0.0059371032 0.51190889 -0.51686424 0.72748512
-17.339001 28.961 -0.26800001 -0.053490415 0.50586319 -0.56511277 0.76033628
-17.371 28.809 -0.266 0.0063187014 0.50943428 -0.54581094 0.74664104
-17.437 28.712999 -0.26499999 0.038989924 0.50857472 -0.54206765 0.74431568
-17.488001 28.594999 -0.264 0.10613554 0.49529114 -0.45380902 0.68008876
-16.834 28.841 -0.495 -0.069448873 0.50438964 -0.56095827 0.75756598
-16.947001 28.826 -0.49599999 -0.045102119 0.50705528 -0.56714195 0.76209527
-17.08 28.844999 -0.498 -0.067701399 0.50769454 -0.55106843 0.75233877
-17.211 28.858 -0.49900001 -0.021473499 0.50950426 -0.55255222 0.75191069
-17.362 28.905001 -0.50199997 0.02322997 0.50654745 -0.55058295 0.74851292
-17.375999 28.823999 -0.50099999 0.023214806 0.50755113 -0.55055767 0.7491734
-17.391001 28.646999 -0.498 0.076401986 0.50288397 -0.53683013 0.73953778
-17.215 28.861 -0.67199999 0.029435998 0.50536114 -0.56143981 0.75595701
-17.351 28.882 -0.67400002 -0.0017941836 0.50613165 -0.57059699 0.76272762
-17.620001 29.121 -0.68300003 0.053440347 0.50244141 -0.54727018 0.74485427
-17.555 28.913 -0.67699999 0.0087369755 0.50406086 -0.58190793 0.76991594
-16.924999 28.782 -0.86400002 -0.038995601 0.50997567 -0.54428864 0.74689084
-17.139 28.732 -0.866 -0.022974361 0.51105887 -0.54868954 0.75017941
-17.254 28.516001 -0.86199999 -0.04788344 0.51231432 -0.54216248 0.74746162
-17.393 28.542999 -0.86500001 -0.014084094 0.512631 -0.54784137 0.75041258
-17.021999 28.716999 -1.0829999 -0.1274958 0.5021494 -0.49292055 0.71510834
-17.15 28.830999 -1.089 -0.18816116 0.48552862 -0.49231881 0.71660346
-17.23 28.757999 -1.0880001 -0.11263575 0.50569117 -0.4915404 0.71415848
-17.497999 28.795 -1.095 0.080278344 0.50192261 -0.4985584 0.71199119
-16.906 28.788 -1.281 -0.27847838 0.43950054 -0.54276359 0.75186652
-17.290001 29.023001 -1.299 0.41395643 0.20995227 -0.36643583 0.59136719
-17.259001 28.764999 -1.288 0.3142806 0.36612764 -0.39765212 0.6252591
-17.471001 28.809 -1.295 0.42268443 0.19225731 -0.36893111 0.59307265
-16.815001 28.750999 -1.469 0.41561809 0.048669077 -0.2579959 0.49159837
-16.902 28.693001 -1.4680001 0.3766183 0.23809566 -0.29704946 0.53550839
-17.121 28.856001 -1.4809999 0.35209537 0.25116244 -0.27314174 0.51152724
-17.083 28.587999 -1.469 0.39445138 0.16120996 -0.26710382 0.50291651
-17.313999 28.364 -1.465 0.23629759 0.43488652 -0.42137343 0.65001416
-16.879 29.378 -1.7130001 0.24531974 0.0043900316 -0.077446103 0.25729156
-16.870001 28.732 -1.681 0.32377765 0.15580669 -0.1674076 0.39640003
-17.042 28.714001 -1.6849999 0.34313029 0.16152683 -0.19300655 0.42553595
-17.318001 28.972 -1.705 0.29947045 0.26881838 -0.21891525 0.45811543
-17.048 29.254999 -1.892 0.2652919 0.047150675 -0.092778623 0.28497517
-16.921 28.827999 -1.865 0.28158015 0.13757516 -0.1228517 0.33661082
-17.322001 29.195999 -1.897 0.27022588 0.11069285 -0.10792667 0.31132475
-17.091999 28.603001 -1.858 0.30939132 0.10099237 -0.13594183 0.35270756
-16.792999 28.6 -2.0799999 0.18832071 0.096780278 -0.052274078 0.21809101
