# .PCD v0.7 - Point Cloud Data file format
VERSION 0.7
FIELDS x y z normal_x normal_y normal_z curvature
SIZE 4 4 4 4 4 4 4
TYPE F F F F F F F
COUNT 1 1 1 1 1 1 1
WIDTH 561
HEIGHT 1
VIEWPOINT 0 0 0 1 0 0 0
POINTS 561
DATA ascii
2.177 15.134 -0.38499999 -0.040539514 0.5342021 -0.46639633 0.7103104
2.2090001 15.114 -0.47600001 -0.048412506 0.53180623 -0.44832346 0.69724858
2.165 15.147 -0.477 -0.050472744 0.53142548 -0.44625697 0.69577712
2.1170001 15.154 -0.477 -0.04715376 0.53137112 -0.4423278 0.69298816
2.0699999 15.16 -0.477 -0.044712987 0.53293473 -0.45529273 0.70236039
2.0209999 15.161 -0.477 -0.052535653 0.53158277 -0.4502582 0.69862199
1.998 15.168 -0.477 -0.052685637 0.53154236 -0.4498142 0.69831645
1.95 15.172 -0.477 -0.053797081 0.5311451 -0.44715491 0.69638836
1.902 15.178 -0.477 -0.061706766 0.52935964 -0.44048268 0.69141471
1.854 15.182 -0.477 -0.00034193974 0.53738368 -0.48693791 0.72518265
1.807 15.19 -0.477 0.040362515 0.5361647 -0.51704407 0.74594653
1.76 15.199 -0.477 0.074612632 0.53140503 -0.53915077 0.76068521
1.712 15.203 -0.477 0.098031089 0.52827239 -0.53043008 0.75500852
1.687 15.196 -0.47600001 0.1041026 0.52690238 -0.53323311 0.75683624
2.7909999 15.327 -0.579 -0.1048905 0.52038819 -0.43015078 0.68325365
2.7309999 15.269 -0.57499999 -0.093666621 0.5219081 -0.42451099 0.67924303
2.6849999 15.288 -0.57599998 -0.082536757 0.52293068 -0.41687486 0.67383486
2.6059999 15.261 -0.574 -0.076097652 0.52317423 -0.41198882 0.67025137
2.5480001 15.208 -0.57099998 -0.05849164 0.52352774 -0.4002161 0.66157049
2.5220001 15.35 -0.57800001 -0.07835149 0.51844871 -0.38953868 0.6531986
2.47 15.334 -0.57599998 -0.073008843 0.52056676 -0.39514118 0.65761429
2.408 15.255 -0.57200003 -0.060467709 0.52284688 -0.39779225 0.65974534
2.3629999 15.282 -0.57300001 -0.057098016 0.52226806 -0.39259258 0.65586054
2.3340001 15.414 -0.579 -0.068124399 0.51682812 -0.37508959 0.64221835
2.332 15.572 -0.58700001 -0.069378987 0.50700521 -0.3411994 0.61504859
2.2130001 15.092 -0.56300002 -0.044130143 0.53005534 -0.4303461 0.68418121
2.168 15.113 -0.56300002 -0.045517977 0.53029376 -0.43291259 0.68607336
2.119 15.114 -0.56300002 -0.048310459 0.5300355 -0.43350628 0.68643951
2.073 15.127 -0.56300002 -0.05130557 0.5293107 -0.43055975 0.68423957
2.0250001 15.135 -0.56300002 -0.051929474 0.52949691 -0.43231747 0.68553776
1.979 15.149 -0.56400001 -0.056500528 0.53066581 -0.44669062 0.69593894
1.931 15.153 -0.56400001 -0.057397962 0.53049862 -0.44610563 0.69550955
1.906 15.148 -0.56300002 -0.058756672 0.53025877 -0.44583082 0.69526386
1.858 15.148 -0.56300002 -0.03358829 0.53405297 -0.45695662 0.70366901
1.811 15.158 -0.56300002 0.013297122 0.5374409 -0.49395072 0.73007315
1.763 15.166 -0.56300002 0.05841713 0.53449988 -0.5181849 0.74673843
1.724 15.243 -0.56699997 0.098816276 0.52903509 -0.51315862 0.7436226
1.6619999 15.125 -0.56099999 0.10705002 0.5262993 -0.53006107 0.75459617
2.8050001 15.036 -0.662 -0.086153746 0.52564663 -0.44562685 0.69448555
2.7620001 15.068 -0.66299999 -0.086562648 0.52604967 -0.44961673 0.69740701
2.71 15.049 -0.662 -0.084058471 0.52751756 -0.46147072 0.70590073
2.6619999 15.058 -0.662 -0.068384513 0.5288347 -0.44619468 0.69529295
2.622 15.105 -0.66399997 -0.06334015 0.52867132 -0.43739244 0.68907005
2.513 15.039 -0.65899998 -0.071381867 0.528997 -0.4534499 0.70039272
2.5 15.253 -0.671 -0.064815454 0.52537745 -0.41447395 0.6723178
2.4879999 15.332 -0.67500001 -0.075817026 0.52039433 -0.39672107 0.65874583
2.45 15.403 -0.67900002 -0.07014998 0.51449108 -0.36767355 0.63624358
2.3510001 15.087 -0.66000003 -0.073292628 0.52807242 -0.44636256 0.69532138
2.3110001 15.142 -0.66299999 -0.073684163 0.52757639 -0.44153827 0.69189757
2.2980001 15.378 -0.676 -0.081270717 0.51543468 -0.37901586 0.64492702
2.207 15.099 -0.66000003 -0.051020265 0.53241748 -0.4592475 0.70496786
2.1619999 15.117 -0.66100001 -0.055349618 0.53160334 -0.45551509 0.70225328
2.138 15.119 -0.66000003 -0.0670285 0.53097814 -0.46934101 0.71183676
2.0899999 15.125 -0.66000003 -0.06760186 0.5306828 -0.46601498 0.70948166
2.0420001 15.13 -0.66000003 -0.063182063 0.53137356 -0.46643078 0.70986444
1.995 15.138 -0.66000003 -0.065944768 0.52998632 -0.4536837 0.70075893
1.947 15.144 -0.66000003 -0.071142018 0.52973133 -0.45996332 0.70515442
1.901 15.158 -0.66100001 -0.08545468 0.52659965 -0.45251146 0.69955438
1.853 15.16 -0.66100001 -0.041405603 0.53509098 -0.49704346 0.73149776
1.806 15.172 -0.66100001 -0.0022641108 0.53666317 -0.52587259 0.7513684
1.7819999 15.175 -0.66100001 0.032763541 0.53524423 -0.53877515 0.76015687
1.7309999 15.149 -0.65899998 0.070477158 0.52608502 -0.5834583 0.78876871
1.683 15.154 -0.65899998 0.08706066 0.52079457 -0.59842551 0.79807246
2.816 15.192 -0.75300002 -0.083919182 0.52176327 -0.41299587 0.67070484
2.7690001 15.205 -0.75300002 -0.082144938 0.52248991 -0.41515663 0.67238271
2.711 15.157 -0.75 -0.079890952 0.5241791 -0.42366353 0.67870247
2.7090001 15.429 -0.76599997 -0.069341868 0.51506639 -0.36896801 0.63736886
2.641 15.323 -0.759 -0.07700365 0.51905394 -0.39154631 0.65471756
2.573 15.213 -0.75199997 -0.071423158 0.52426016 -0.41458037 0.67218071
2.6099999 15.737 -0.78399998 -0.025598824 0.47184378 -0.25017324 0.53467607
2.5190001 15.333 -0.759 -0.084827654 0.51838189 -0.39504293 0.6572476
2.4749999 15.369 -0.75999999 -0.086962476 0.51799875 -0.39481714 0.65708882
2.4189999 15.323 -0.75700003 -0.095035091 0.51846176 -0.40584064 0.66523749
2.3640001 15.285 -0.75400001 -0.073427409 0.52287591 -0.40793973 0.66723728
2.309 15.249 -0.75099999 -0.075709894 0.52389055 -0.41636112 0.67346114
2.2679999 15.304 -0.75400001 -0.07697963 0.52157742 -0.40412283 0.66429222
2.2160001 15.283 -0.75300002 -0.083189286 0.52401686 -0.42512393 0.67988563
2.175 15.168 -0.745 -0.090443522 0.52547681 -0.45048374 0.6980269
2.1270001 15.171 -0.745 -0.07605055 0.52857101 -0.45492917 0.70152092
2.0799999 15.183 -0.745 -0.083323203 0.52687025 -0.45055175 0.69823486
2.0320001 15.188 -0.745 -0.1012271 0.52528858 -0.48181587 0.71994555
1.985 15.194 -0.745 -0.098595873 0.5259645 -0.48428592 0.72172898
1.937 15.2 -0.745 -0.098060764 0.52573395 -0.47497219 0.71526968
1.8890001 15.204 -0.745 -0.088615045 0.52823156 -0.49434155 0.72887224
1.842 15.218 -0.74599999 -0.039223865 0.5351035 -0.51632237 0.74462277
1.818 15.217 -0.745 0.01417346 0.53667861 -0.52801824 0.75301266
1.7690001 15.219 -0.745 0.050591715 0.53147262 -0.56347966 0.77622938
1.722 15.224 -0.745 0.072470322 0.52826625 -0.56917304 0.77991992
1.677 15.259 -0.74699998 0.10027643 0.5273363 -0.53831571 0.7602123
2.796 15.118 -0.85600001 -0.091385402 0.52249372 -0.4278557 0.68147743
2.7420001 15.091 -0.85299999 -0.094496958 0.52372324 -0.44278899 0.69229889
2.753 15.286 -0.86699998 -0.10292329 0.51723617 -0.40910751 0.66745442
2.675 15.13 -0.85500002 -0.091537192 0.52398366 -0.43911165 0.68975139
2.6489999 15.258 -0.86299998 -0.069628082 0.52118009 -0.39648366 0.65854084
2.6229999 15.398 -0.87300003 -0.086910114 0.5157851 -0.38469696 0.64929146
2.622 15.684 -0.89200002 -0.054391585 0.49133077 -0.29475808 0.57554036
2.4920001 15.203 -0.85799998 -0.076493159 0.5239619 -0.41820785 0.67474818
2.5009999 15.564 -0.88200003 -0.065641113 0.50912559 -0.34599793 0.61905748
2.391 15.187 -0.85600001 -0.11451989 0.52102029 -0.46135774 0.70528567
2.402 15.408 -0.87099999 -0.090832636 0.51699197 -0.39346406 0.65600705
2.3239999 15.23 -0.85799998 -0.10616542 0.52076966 -0.43772686 0.68853247
2.277 15.241 -0.85799998 -0.099045083 0.52118331 -0.42862615 0.68202811
2.2420001 15.333 -0.86400002 -0.099596322 0.51654851 -0.40131122 0.66165888
2.2030001 15.405 -0.86900002 -0.10142156 0.51568145 -0.39819407 0.65937257
2.9349999 15.556 -0.96499997 -0.206623 0.48722515 -0.44680667 0.69261652
2.8280001 15.247 -0.94099998 -0.10863468 0.51729929 -0.41766423 0.67367905
2.7780001 15.246 -0.94 -0.09956982 0.51846874 -0.41226318 0.6698395
2.743 15.327 -0.94599998 -0.12018982 0.51561308 -0.42437273 0.6785239
2.7909999 15.892 -0.98699999 0.44434729 0.20767829 -0.32124823 0.5863235
2.665 15.305 -0.94300002 -0.11455752 0.51688987 -0.42348045 0.67796332
2.6489999 15.504 -0.95700002 -0.12455636 0.51072633 -0.40129527 0.6613574
2.576 15.364 -0.94599998 -0.10740444 0.51850647 -0.42149299 0.67678726
2.51 15.266 -0.93900001 -0.09028811 0.5225029 -0.42445108 0.67920536
2.47 15.325 -0.94199997 -0.081242293 0.52183783 -0.40927148 0.66814536
2.4330001 15.404 -0.94800001 -0.10167207 0.51704144 -0.4051089 0.66466707
2.3900001 15.445 -0.94999999 -0.10113662 0.51649261 -0.40124303 0.66180748
2.345 15.314 -0.94 -0.10536653 0.51952696 -0.4259387 0.6800251
2.299 15.338 -0.94099998 -0.094830096 0.5186739 -0.40672523 0.66591352
2.243 15.287 -0.93699998 -0.13357553 0.51578718 -0.45853689 0.70294732
2.1819999 15.204 -0.93000001 -0.16463269 0.50592625 -0.52994794 0.75093943
2.1340001 15.208 -0.93000001 -0.15878569 0.50730449 -0.53940451 0.75731629
2.086 15.211 -0.93000001 -0.16219527 0.50674021 -0.53080821 0.75156522
2.0380001 15.221 -0.93000001 -0.14995399 0.51152647 -0.52241337 0.74636537
1.99 15.224 -0.93000001 -0.13418438 0.51683784 -0.51425165 0.74133766
1.967 15.233 -0.93000001 -0.12658666 0.51904929 -0.51431191 0.74158818
1.918 15.231 -0.93000001 -0.093258075 0.52712524 -0.48367956 0.72145969
1.8710001 15.243 -0.93000001 -0.013196502 0.53719813 -0.50118339 0.7348066
1.824 15.257 -0.93099999 0.043830328 0.5362494 -0.50771219 0.73976767
1.775 15.256 -0.93000001 0.068195805 0.53347784 -0.5199396 0.7480551
1.728 15.268 -0.93099999 0.092331193 0.53011054 -0.51538444 0.74509287
1.677 15.245 -0.92900002 0.10124477 0.52597213 -0.54996508 0.76769704
2.865 15.063 -1.029 -0.26917917 0.4381519 -0.61025327 0.79802477
2.8510001 15.25 -1.044 -0.1269857 0.51544154 -0.43791354 0.68816686
2.766 15.061 -1.027 0.29837358 -0.34490135 -0.35847783 0.58007765
2.74 15.186 -1.0369999 -0.14420429 0.51254112 -0.46177718 0.70479172
2.724 15.373 -1.051 -0.11828443 0.51602942 -0.4231492 0.67774099
2.635 15.146 -1.0319999 -0.20778674 0.48388651 -0.5637936 0.77148211
2.599 15.223 -1.038 -0.15861179 0.50910002 -0.48899519 0.72350317
2.71 16.172001 -1.114 0.45330572 0.14979394 -0.29949349 0.56357843
2.6630001 16.045 -1.104 0.46096757 0.18851647 -0.34815931 0.60765487
2.4760001 15.223 -1.036 -0.16573411 0.50659859 -0.50212264 0.7322821
2.428 15.229 -1.036 -0.18259913 0.49955574 -0.51953721 0.74351686
2.427 15.532 -1.0599999 -0.10042406 0.5160445 -0.3972455 0.65893161
2.3540001 15.387 -1.048 -0.10373583 0.51815408 -0.41408736 0.67135173
2.4619999 16.426001 -1.131 0.45887411 0.088296965 -0.28838655 0.54911619
2.194 15.137 -1.026 -0.22683918 0.45794767 -0.63327241 0.81376046
2.148 15.154 -1.027 -0.21389298 0.46591657 -0.63013959 0.81234497
2.0999999 15.157 -1.026 -0.20279054 0.46753532 -0.64252651 0.82009363
2.053 15.169 -1.027 -0.19225523 0.47281283 -0.6417892 0.82000452
2.0050001 15.173 -1.027 -0.18111831 0.47623312 -0.64645636 0.82310849
1.9579999 15.184 -1.027 -0.14217077 0.50208378 -0.60685295 0.80035692
1.909 15.184 -1.027 -0.097577907 0.5102998 -0.62263817 0.81092882
1.885 15.185 -1.026 -0.076988921 0.51237071 -0.63022047 0.81586081
1.8380001 15.197 -1.027 0.036779359 0.51632512 -0.63950014 0.82274222
1.791 15.202 -1.027 0.074231304 0.5114935 -0.64294899 0.82493591
1.743 15.208 -1.027 0.089342371 0.50479031 -0.65635586 0.83282548
1.691 15.178 -1.024 0.10894676 0.47171277 -0.72447467 0.87134719
2.8989999 15.321 -1.1390001 -0.065083779 0.52444643 -0.40862465 0.66802251
2.8280001 15.206 -1.1289999 0.34024563 -0.30465084 -0.34841877 0.5744344
2.8 15.189 -1.127 0.33980453 -0.3025246 -0.34267843 0.56957597
2.7820001 15.362 -1.141 -0.10074766 0.51940203 -0.41762605 0.67404753
2.714 15.261 -1.132 -0.232383 0.47062987 -0.56835091 0.7736389
2.868 16.438 -1.233 0.34284738 0.12781395 -0.1374712 0.39086962
2.618 15.278 -1.132 -0.20358054 0.48884144 -0.54188681 0.75766236
2.6489999 15.758 -1.173 -0.005680019 0.50792396 -0.32513601 0.60310239
2.54 15.402 -1.141 -0.090532258 0.51996094 -0.40791166 0.66704375
2.5339999 15.522 -1.151 -0.11755928 0.5135287 -0.40572593 0.66494018
2.5179999 15.735 -1.169 -0.11069313 0.50881273 -0.37493736 0.64165521
2.395 15.27 -1.128 -0.22520398 0.47561187 -0.5618664 0.7698164
2.3429999 15.248 -1.125 -0.24531434 0.45815587 -0.59430397 0.78948283
2.1819999 15.153 -1.115 0.27386004 -0.35543266 -0.34104484 0.56359851
2.1359999 15.17 -1.1160001 -0.24351662 0.4487915 -0.63165474 0.81222034
2.112 15.169 -1.1160001 -0.24297079 0.4480556 -0.6348843 0.81416625
2.0650001 15.186 -1.1160001 -0.22867002 0.45603073 -0.6363399 0.81558722
2.017 15.184 -1.1160001 -0.18349652 0.47246739 -0.65433913 0.82768112
1.969 15.194 -1.1160001 -0.14828478 0.48545936 -0.65678513 0.8300758
1.9220001 15.2 -1.1160001 -0.12095623 0.48850632 -0.67200679 0.83956063
1.874 15.208 -1.1160001 0.065294266 0.4431572 -0.78509086 0.90389121
1.826 15.21 -1.1160001 0.090053663 0.42690828 -0.80110174 0.9122085
1.801 15.205 -1.115 0.11074072 0.42522833 -0.79682827 0.90995491
1.753 15.213 -1.115 0.10022244 0.45420924 -0.75877035 0.88999045
1.699 15.161 -1.11 0.10796961 0.40633416 -0.8206057 0.92204046
2.852 15.215 -1.222 0.38138208 -0.21458612 -0.2814858 0.52032083
2.875 15.607 -1.258 0.18540969 0.46082038 -0.29719597 0.57884163
2.836 15.671 -1.263 0.38316569 0.25968108 -0.25220093 0.52711999
2.6989999 15.19 -1.217 0.33708259 -0.28378034 -0.30247825 0.53446144
2.6589999 15.383 -1.234 -0.14196652 0.514884 -0.4829528 0.72007179
2.5309999 15.213 -1.216 0.30865932 -0.32303748 -0.32694173 0.55363768
2.5469999 15.61 -1.253 -0.12600973 0.51150745 -0.40604553 0.66512501
2.4660001 15.419 -1.234 -0.13812612 0.51521021 -0.46449715 0.70730335
2.461 15.7 -1.26 -0.13481216 0.50819832 -0.40127432 0.66140831
2.362 15.228 -1.215 0.28877449 -0.34375322 -0.33860159 0.56232375
2.3080001 15.198 -1.212 0.29783535 -0.33359385 -0.33091044 0.55632049
2.247 15.118 -1.204 0.29789528 -0.31319472 -0.29141998 0.52130425
2.198 15.111 -1.2029999 0.29574686 -0.31533682 -0.29203093 0.52171409
2.1500001 15.118 -1.2029999 0.28181967 -0.32518065 -0.29016703 0.51900065
2.1040001 15.133 -1.2029999 0.2777749 -0.33326834 -0.2993921 0.52712649
2.0569999 15.147 -1.204 0.25686273 -0.34995952 -0.30403134 0.52998602
2.0079999 15.138 -1.2029999 0.23157392 -0.35212085 -0.27915543 0.50551295
1.988 15.171 -1.205 -0.19941932 0.45209956 -0.68617928 0.84557915
1.938 15.157 -1.2029999 -0.15602922 0.44896579 -0.73062861 0.87162697
1.893 15.185 -1.205 0.029358326 0.42103446 -0.81851679 0.92092431
1.842 15.165 -1.2029999 0.090976685 0.37008172 -0.86233097 0.94278944
1.7970001 15.19 -1.205 0.11290628 0.38345903 -0.84368694 0.93359321
1.7460001 15.17 -1.2029999 0.11579668 0.36751264 -0.85804868 0.94059664
1.697 15.164 -1.201 0.11524072 0.36116132 -0.86390585 0.9434253
2.882 15.283 -1.327 0.37511921 -0.21485899 -0.27151793 0.51049078
2.8039999 15.129 -1.311 0.37534925 -0.19881529 -0.25491479 0.49537474
2.7780001 15.257 -1.323 0.35621569 -0.23628403 -0.26673752 0.5038538
2.7869999 15.585 -1.355 0.054019481 0.51036644 -0.33900961 0.61507684
2.7409999 15.61 -1.3559999 0.023132553 0.51322746 -0.3414585 0.61687231
2.6719999 15.357 -1.331 -0.25377131 0.44162968 -0.63489485 0.81395835
2.632 15.416 -1.336 -0.191212 0.49344474 -0.55410129 0.76621014
2.635 15.731 -1.3660001 -0.11761685 0.51299149 -0.40046453 0.66133642
2.5139999 15.303 -1.323 0.29683197 -0.33679071 -0.33689156 0.5612781
2.45 15.207 -1.313 0.31898719 -0.30195385 -0.30390111 0.53412062
2.4070001 15.248 -1.316 0.30782729 -0.3240571 -0.32786974 0.55431867
2.355 15.23 -1.313 0.31735027 -0.309654 -0.3153519 0.54409891
2.3139999 15.28 -1.318 0.30034137 -0.33697313 -0.3437171 0.56735992
2.2920001 15.3 -1.319 0.29612154 -0.34485996 -0.35569352 0.57717782
2.244 15.303 -1.319 -0.2617853 0.43949467 -0.62510598 0.80774039
2.194 15.3 -1.318 -0.24126507 0.45417166 -0.61957192 0.80520189
2.1819999 15.567 -1.344 -0.069608644 0.51536703 -0.36952794 0.63796508
2.148 15.68 -1.354 -0.022271926 0.50371218 -0.31696212 0.59555602
2.1329999 15.945 -1.38 -0.032495622 0.44344997 -0.20661831 0.49030089
1.666 15.154 -1.2970001 -0.094181165 -0.24371897 -0.097608715 0.27892023
2.8540001 15.163 -1.41 0.37104028 -0.17372245 -0.22703728 0.46839759
2.8329999 15.181 -1.4119999 0.37523583 -0.1810925 -0.23881 0.48023602
2.862 15.603 -1.455 0.29000023 0.35084027 -0.22792152 0.50905526
2.7939999 15.512 -1.4450001 0.32691202 -0.31883195 -0.35464156 0.57818329
2.7550001 15.573 -1.45 0.0082292287 0.51724863 -0.35375157 0.62670088
2.7980001 16.103001 -1.506 0.37676969 -0.017907806 -0.1658079 0.41202953
2.6029999 15.275 -1.4170001 0.31065282 -0.29918319 -0.28689516 0.51800054
2.549 15.248 -1.413 0.31186146 -0.29300252 -0.27893373 0.51079553
2.5109999 15.169 -1.405 0.31953394 -0.27448571 -0.26292676 0.49656302
2.517 15.503 -1.439 -0.17428647 0.50362414 -0.51858395 0.74360096
2.454 15.42 -1.4299999 -0.24913487 0.45080703 -0.61556196 0.80262798
2.382 15.281 -1.414 0.31211326 -0.31444973 -0.31595552 0.5441702
2.329 15.258 -1.411 0.31122354 -0.31490287 -0.31527883 0.54352981
2.3859999 15.954 -1.483 0.39537346 -0.15869951 -0.25259185 0.49528614
2.273 15.536 -1.439 -0.099464841 0.51879394 -0.41033632 0.66889185
2.2130001 15.471 -1.431 -0.18320797 0.50005507 -0.51573408 0.74135137
2.2160001 15.663 -1.451 -0.064898521 0.51186401 -0.35391849 0.62567955
2.1670001 15.672 -1.451 -0.056327455 0.50983989 -0.34359008 0.61738455
1.688 15.191 -1.395 -0.093496554 -0.24113323 -0.095705301 0.275765
2.904 15.368 -1.535 0.40674344 -0.062033921 -0.21358785 0.46358192
2.8789999 15.504 -1.549 0.41178823 -0.056836776 -0.21915218 0.46992302
2.9130001 15.969 -1.601 0.34289852 0.00086177886 -0.12910786 0.3664
2.835 15.676 -1.567 0.36571181 0.13289182 -0.16186342 0.42143226
2.7909999 15.716 -1.571 0.37948194 0.099526271 -0.16926354 0.42727295
2.74 15.715 -1.569 0.38702473 0.10836282 -0.17984727 0.44031316
2.7060001 15.815 -1.58 0.39299002 0.047391396 -0.17962989 0.43468839
2.559 15.538 -1.5470001 0.27276888 -0.35449606 -0.33915526 0.56133467
2.5050001 15.514 -1.543 -0.21537217 0.47118226 -0.61206043 0.80188268
2.48 15.518 -1.543 0.26497892 -0.36444578 -0.35166031 0.57157636
2.402 15.337 -1.522 0.30058777 -0.31402674 -0.29749292 0.52675217
2.348 15.306 -1.518 0.30100024 -0.30615532 -0.28476736 0.51519382
2.296 15.283 -1.5140001 0.30251577 -0.30291834 -0.2816354 0.51243907
2.2590001 15.367 -1.523 0.27551314 -0.34551844 -0.32184666 0.54669529
2.3110001 16.083 -1.602 0.29027352 0.072195187 -0.087226063 0.31157544
2.207 15.704 -1.559 -0.075623184 0.51461887 -0.36922437 0.63786995
2.181 15.694 -1.558 -0.040548075 0.50565517 -0.32604271 0.60302168
1.9299999 15.29 -1.5089999 0.16267464 -0.29859826 -0.16261292 0.37691763
1.869 15.191 -1.498 0.11381602 -0.26031566 -0.11119249 0.30509359
1.826 15.238 -1.502 0.048772797 -0.24534377 -0.088319629 0.26527855
1.7640001 15.12 -1.489 -0.029782649 -0.23075382 -0.078058779 0.24541293
1.7640001 15.33 -1.512 -0.03124468 -0.26056463 -0.099113375 0.28052381
1.702 15.211 -1.498 -0.071786873 -0.2132501 -0.0731996 0.23661602
1.653 15.204 -1.4960001 -0.07131464 -0.20447326 -0.068026751 0.22698618
1.589 15.059 -1.48 -0.056588843 -0.21054718 -0.068831146 0.22862664
2.9230001 15.335 -1.628 0.376151 -0.031381324 -0.16706267 0.41277632
2.846 15.192 -1.61 0.3368462 -0.15845148 -0.1767683 0.41209134
2.8099999 15.264 -1.617 0.35610604 -0.14385433 -0.18879443 0.42795902
2.842 15.71 -1.669 0.34611723 0.091991872 -0.13384563 0.38232747
2.7520001 15.492 -1.642 0.381511 -0.099177092 -0.19586033 0.44016817
2.7869999 15.835 -1.682 0.35944161 0.03284714 -0.14286554 0.38818523
2.6960001 15.607 -1.654 0.38311514 -0.11151293 -0.2040652 0.44816846
2.6400001 15.574 -1.649 0.36521032 -0.18683825 -0.23109591 0.47084227
2.546 15.312 -1.617 0.29639 -0.26280159 -0.22220716 0.45418909
2.4660001 15.13 -1.595 0.30167949 -0.23980156 -0.20392627 0.43600598
2.398 15.008 -1.579 0.25891677 -0.25522795 -0.18002814 0.40569609
2.322 14.835 -1.558 0.20902006 -0.26548186 -0.15487057 0.37169194
2.2149999 14.451 -1.512 0.068778925 -0.20890661 -0.067011416 0.22991964
2.2479999 14.816 -1.554 0.1955146 -0.27026534 -0.15144804 0.36634111
2.152 14.497 -1.516 0.072141007 -0.22020513 -0.074157774 0.24329816
2.085 14.358 -1.499 0.054981887 -0.20034601 -0.060469031 0.21637475
2.056 14.477 -1.512 0.069384307 -0.21945935 -0.073282599 0.24155109
2.023 14.568 -1.522 0.072452016 -0.24240421 -0.088496357 0.26803115
2.0209999 14.897 -1.5599999 0.19050002 -0.28369528 -0.16124898 0.37785515
1.891 14.285 -1.487 0.035714198 -0.19999081 -0.058551073 0.21142387
1.87 14.296 -1.488 0.03237832 -0.20148583 -0.059156209 0.21247199
1.862 14.587 -1.522 0.059303675 -0.23959467 -0.084739476 0.26096612
1.78 14.309 -1.488 0.026450718 -0.20557013 -0.061085105 0.21607894
1.799 14.829 -1.549 0.088018708 -0.26626644 -0.10899046 0.30087212
1.763 14.928 -1.5599999 0.038284365 -0.24123624 -0.084140897 0.25834146
1.688 14.686 -1.531 0.045413993 -0.25491583 -0.093913049 0.27543452
1.645 14.725 -1.535 0.036781251 -0.25484732 -0.093185037 0.2738311
1.6339999 14.832 -1.5470001 0.012251006 -0.23140348 -0.076446593 0.24401177
1.561 14.597 -1.5190001 0.010577666 -0.2354333 -0.078716815 0.24846944
1.551 14.939 -1.558 -0.021401543 -0.19223128 -0.054973543 0.20107953
1.4809999 14.721 -1.5319999 0.003792475 -0.23680793 -0.07971248 0.24989289
1.442 14.792 -1.54 -0.021122392 -0.19910273 -0.058363229 0.20855293
1.256 14.55 -1.51 0.0068470496 -0.20943291 -0.062895149 0.21878032
1.1109999 14.456 -1.498 0.0088684093 -0.20462918 -0.06013763 0.21346729
1.0599999 14.396 -1.49 0.0073441542 -0.21320486 -0.064883143 0.22297998
1.023 14.513 -1.503 0.0089459671 -0.19417763 -0.054609776 0.20190892
0.97100002 14.411 -1.4910001 0.0053719026 -0.21338239 -0.064991832 0.22312516
0.94400001 14.355 -1.484 0.0037497815 -0.21505833 -0.065917999 0.22496516
0.76800001 14.453 -1.494 0.0049593719 -0.20504263 -0.060325474 0.21379016
0.727 14.534 -1.5039999 0.0047792066 -0.19466878 -0.054846704 0.20230407
0.676 14.43 -1.4910001 0.00081782416 -0.2078132 -0.061876118 0.21683092
0.634 14.495 -1.499 -0.0010230388 -0.20007187 -0.057724327 0.2082352
0.47499999 14.525 -1.501 -0.0078462325 -0.19948903 -0.057599604 0.20778631
0.38299999 14.484 -1.4960001 -0.0097217262 -0.20675914 -0.061612993 0.21596299
0.336 14.459 -1.493 -0.015232253 -0.206026 -0.061429143 0.21552791
0.271 14.576 -1.507 -0.017736603 -0.19872487 -0.057676494 0.20768422
0.222 14.432 -1.49 -0.029611286 -0.23004963 -0.076528609 0.24424636
0.17900001 14.56 -1.505 -0.021559142 -0.20417316 -0.060826361 0.21412922
0.132 14.5 -1.498 -0.0351546 -0.22589862 -0.074490428 0.24044721
0.086999997 14.527 -1.501 -0.036074419 -0.22335595 -0.073033869 0.23774606
2.911 15.26 -1.7079999 0.32725543 -0.092464663 -0.13622674 0.36633804
2.8889999 15.409 -1.725 0.35489777 -0.054228127 -0.15026012 0.38919303
2.8510001 15.477 -1.733 0.36652836 -0.038970649 -0.15848926 0.40122387
2.812 15.538 -1.739 0.38091797 -0.035689775 -0.17368436 0.42016485
2.7639999 15.553 -1.74 0.37690443 -0.063138917 -0.17665276 0.42101029
2.7260001 15.62 -1.747 0.37524259 -0.073574163 -0.17832282 0.42192319
2.7219999 15.746 -1.763 0.35329607 0.058133766 -0.13738999 0.38350183
2.711 15.983 -1.791 0.31939942 -0.019956388 -0.11189628 0.33902067
2.424 14.556 -1.612 0.10202792 -0.19652621 -0.066231132 0.2311251
2.3640001 14.471 -1.601 0.080219813 -0.1821364 -0.054607123 0.20637545
2.3069999 14.408 -1.592 0.075708725 -0.17826796 -0.051977217 0.20053156
2.273 14.49 -1.601 0.087765843 -0.18940581 -0.05958882 0.21709037
2.214 14.559 -1.609 0.096131742 -0.21058717 -0.072840661 0.24268094
2.095 14.386 -1.586 0.053578567 -0.19466023 -0.057324648 0.20987946
2.0439999 14.352 -1.58 0.044563498 -0.1947313 -0.056481212 0.2075965
2 14.362 -1.581 0.042472422 -0.20130984 -0.059807509 0.21425802
1.9680001 14.468 -1.5930001 0.053344905 -0.20608072 -0.063519657 0.2221479
1.931 14.541 -1.602 0.061218973 -0.22082922 -0.073035836 0.24051514
1.851 14.46 -1.59 0.04332871 -0.21011329 -0.064824402 0.22411419
1.817 14.554 -1.601 0.048503604 -0.22874363 -0.076485902 0.24602102
1.762 14.487 -1.592 0.035760671 -0.21758224 -0.068591088 0.23092335
1.711 14.441 -1.586 0.024545774 -0.22030565 -0.069554478 0.23232499
1.665 14.439 -1.585 0.021458752 -0.21964917 -0.06903097 0.23123908
1.627 14.509 -1.5930001 0.019172382 -0.22134428 -0.070025653 0.23294733
1.567 14.388 -1.5779999 0.014400575 -0.19812524 -0.056721479 0.2065873
1.545 14.39 -1.5779999 0.015516274 -0.19598211 -0.055608869 0.20430881
1.3940001 14.25 -1.559 0.010490778 -0.19684039 -0.055860907 0.20488201
1.355 14.315 -1.566 0.0093224254 -0.19308718 -0.053947628 0.20069855
1.304 14.252 -1.558 0.0082054725 -0.20257074 -0.058883309 0.21111484
1.276 14.442 -1.581 0.010046557 -0.19470581 -0.054861456 0.20253657
1.22 14.32 -1.5650001 0.008383288 -0.19854411 -0.056773365 0.20667186
1.2029999 14.389 -1.573 0.010603223 -0.19698006 -0.056007624 0.20506202
1.147 14.258 -1.557 0.0036976875 -0.20993987 -0.062939644 0.21920268
1.1109999 14.376 -1.571 0.0066357437 -0.20585144 -0.060740024 0.21472819
1.0650001 14.378 -1.571 0.0050452165 -0.21382336 -0.065221399 0.22360617
1.022 14.405 -1.574 0.005692957 -0.21310133 -0.06482023 0.22281438
0.96700001 14.267 -1.556 0.003083596 -0.21809743 -0.067629784 0.22836328
0.92900002 14.369 -1.569 0.004656787 -0.21452029 -0.065608442 0.22437716
0.91000003 14.428 -1.576 0.0038691056 -0.20723872 -0.061532676 0.21621546
0.86199999 14.397 -1.571 0.0051414561 -0.21409851 -0.065374255 0.22391607
0.81400001 14.342 -1.564 0.0044344477 -0.2161006 -0.066490412 0.2261418
0.77100003 14.392 -1.5700001 0.0057152007 -0.21031344 -0.063209563 0.21968126
0.727 14.413 -1.572 0.005555355 -0.21003889 -0.063074917 0.21937557
0.685 14.48 -1.58 0.0038076139 -0.20542693 -0.060561627 0.21420185
0.63800001 14.445 -1.576 0.0026789755 -0.20756388 -0.061729878 0.21656528
0.61400002 14.434 -1.574 0.001205375 -0.20732595 -0.061601341 0.21628737
0.56599998 14.356 -1.5650001 -0.0030868687 -0.22649956 -0.072828531 0.23794027
0.51899999 14.3 -1.558 -0.0072304565 -0.23064645 -0.075489581 0.24279362
0.47499999 14.32 -1.5599999 -0.008466538 -0.23277041 -0.076897681 0.24528962
0.428 14.278 -1.554 -0.01427153 -0.2484913 -0.087533414 0.26384407
0.294 14.275 -1.554 -0.024689872 -0.24255697 -0.084132046 0.25791797
0.27200001 14.313 -1.558 -0.023134582 -0.24246216 -0.083987683 0.25763744
0.227 14.322 -1.559 -0.025497921 -0.24173681 -0.083677709 0.25707743
0.182 14.311 -1.558 -0.026898088 -0.24548243 -0.086297095 0.26159573
0.138 14.45 -1.575 -0.03277877 -0.22764745 -0.075302333 0.24200878
0.092 14.196 -1.544 -0.038445812 -0.26579589 -0.10189414 0.28724197
2.9649999 15.5 -1.819 0.31604838 -0.036929041 -0.11174271 0.3372488
2.848 15.28 -1.789 0.31171423 -0.089221224 -0.12207082 0.34644982
2.8629999 15.632 -1.8329999 0.33684948 -0.0069509484 -0.12451407 0.35919306
2.734 15.198 -1.776 0.30646929 -0.13606498 -0.13693047 0.36219752
2.7309999 15.46 -1.809 0.33171031 -0.10474449 -0.14529219 0.37697873
2.698 15.557 -1.8200001 0.34928542 -0.086180769 -0.15507632 0.39176026
2.641 15.516 -1.814 0.34005284 -0.10782911 -0.15458119 0.38879094
2.6099999 15.63 -1.827 0.34571734 -0.12516405 -0.16835472 0.40438822
2.039 14.45 -1.6670001 0.05919385 -0.19472511 -0.058032632 0.21163546
1.484 14.22 -1.6289999 0.010273654 -0.19536464 -0.055077851 0.20323992
1.438 14.211 -1.628 0.010367951 -0.20031253 -0.05767417 0.20870772
1.395 14.231 -1.63 0.0089278826 -0.20333572 -0.059298277 0.21199389
1.372 14.221 -1.628 0.007426362 -0.2057185 -0.060588807 0.21458392
1.324 14.2 -1.625 0.0060807103 -0.21133959 -0.063697666 0.22081393
1.284 14.249 -1.631 0.0065844511 -0.20633696 -0.060930371 0.21524592
1.2359999 14.214 -1.625 0.0044752341 -0.21198206 -0.064070672 0.22149824
1.1950001 14.267 -1.632 0.0056229141 -0.21007881 -0.063017279 0.21939895
1.152 14.287 -1.6339999 0.0051424634 -0.21001048 -0.062988251 0.21931341
1.107 14.288 -1.6339999 0.0033968245 -0.21350814 -0.064982861 0.22320403
1.081 14.244 -1.628 0.006913838 -0.21432865 -0.065417379 0.22419636
1.0369999 14.267 -1.63 0.0064890175 -0.21171178 -0.063929528 0.22124866
0.98799998 14.205 -1.622 0.0029660137 -0.21947725 -0.068397254 0.22990704
0.94499999 14.236 -1.625 0.0026885776 -0.21707425 -0.067005157 0.22719626
0.903 14.277 -1.63 0.0025988065 -0.21660927 -0.066760093 0.22667871
0.85600001 14.252 -1.627 0.0054173162 -0.21605262 -0.066398025 0.22609021
0.81300002 14.28 -1.63 0.0052543548 -0.21607165 -0.066431046 0.22611424
0.78100002 14.506 -1.659 0.0076074917 -0.20323476 -0.059372604 0.21186633
0.74800003 14.331 -1.636 0.0033501908 -0.21856926 -0.06793499 0.22890808
0.70300001 14.326 -1.635 0.0025677932 -0.21901549 -0.06820482 0.22940418
0.66100001 14.395 -1.6440001 0.0028242387 -0.21860588 -0.068009943 0.2289582
0.61000001 14.27 -1.628 -0.0023885546 -0.22720464 -0.073183715 0.23871219
0.565 14.256 -1.625 -0.010148583 -0.24266344 -0.083344698 0.25677788
0.51899999 14.228 -1.622 -0.012929778 -0.2459182 -0.085652947 0.26072854
0.47799999 14.345 -1.636 -0.0062985839 -0.22989361 -0.075029612 0.24190946
0.454 14.286 -1.6289999 -0.012568032 -0.24405786 -0.084427804 0.25855413
0.41 14.313 -1.632 -0.013908979 -0.23874611 -0.080984563 0.25249091
0.366 14.38 -1.64 -0.01113083 -0.23295924 -0.077174485 0.24566197
0.31799999 14.258 -1.625 -0.017280687 -0.24801254 -0.087338865 0.26350886
0.27900001 14.507 -1.656 -0.011825847 -0.21131903 -0.064266115 0.22119159
0.23 14.311 -1.631 -0.023275783 -0.24197643 -0.083661735 0.25708684
0.186 14.439 -1.648 -0.027089398 -0.23496301 -0.079449326 0.2495068
3.2509999 15.45 -1.9299999 0.20666392 0.0035420135 -0.040825158 0.21068747
3.227 15.455 -1.9299999 0.21621214 -0.0063986294 -0.045965225 0.22113667
3.1719999 15.436 -1.926 0.23868266 -0.01998565 -0.058566868 0.24657436
3.112 15.385 -1.918 0.24409735 -0.037930768 -0.064219058 0.25523782
3.0699999 15.426 -1.9220001 0.25257912 -0.028757323 -0.067426145 0.26300091
3.0150001 15.407 -1.918 0.26316115 -0.034798279 -0.074581176 0.27573007
2.964 15.402 -1.916 0.27136701 -0.035300907 -0.079739869 0.28503448
2.918 15.423 -1.918 0.28351527 -0.035081979 -0.087605745 0.29880834
2.892 15.418 -1.916 0.30427837 -0.03084607 -0.1015707 0.32226294
2.8369999 15.39 -1.911 0.297786 -0.069712415 -0.10548353 0.32351676
2.756 15.217 -1.886 0.27752054 -0.12081003 -0.10832459 0.32147616
2.714 15.259 -1.891 0.28288379 -0.11950608 -0.11161563 0.32674608
2.6800001 15.35 -1.902 0.28850254 -0.11978696 -0.11589673 0.33318865
2.6300001 15.344 -1.9 0.29163384 -0.12218694 -0.11923555 0.33793056
2.5769999 15.323 -1.896 0.28093928 -0.14420012 -0.12132412 0.33828995
2.5190001 15.274 -1.8890001 0.27428564 -0.1496128 -0.11917886 0.33439529
2.099 14.561 -1.785 0.085405827 -0.18392798 -0.056458831 0.2105024
1.42 14.269 -1.735 0.009852862 -0.19765559 -0.056289524 0.20575063
1.396 14.251 -1.732 0.0099448003 -0.20312275 -0.059201241 0.21180779
1.271 14.38 -1.748 0.0084985588 -0.19317019 -0.054005682 0.20075747
1.217 14.268 -1.732 0.0046079615 -0.21039736 -0.063199282 0.21973264
1.175 14.307 -1.737 0.0056971414 -0.21071088 -0.063398033 0.22011553
1.126 14.267 -1.7309999 0.0025659641 -0.21302947 -0.064703643 0.22265378
1.108 14.326 -1.739 0.0050754035 -0.2115059 -0.06385383 0.2209928
1.058 14.26 -1.729 0.0080032963 -0.21354288 -0.064970732 0.22335131
1.0140001 14.279 -1.7309999 0.0051833834 -0.2156803 -0.066211045 0.22567402
0.96799999 14.259 -1.728 0.0043558842 -0.22019643 -0.068847209 0.23074959
0.92400002 14.274 -1.73 0.0044867434 -0.21759813 -0.067320377 0.22781815
0.88 14.288 -1.7309999 0.0046821437 -0.21532127 -0.065994292 0.22525634
0.833 14.255 -1.727 0.0032733495 -0.22300175 -0.070523947 0.2339105
0.78799999 14.262 -1.727 0.0020646965 -0.22723612 -0.073114514 0.23871793
0.76599997 14.273 -1.729 0.0029801212 -0.2233167 -0.070727587 0.23426826
0.722 14.291 -1.7309999 0.0021495125 -0.22315867 -0.070648998 0.2340848
0.676 14.272 -1.728 -0.00022835098 -0.23001662 -0.074887395 0.24190043
0.634 14.339 -1.737 -0.0013131551 -0.22752213 -0.073411316 0.23907585
0.58600003 14.256 -1.725 -0.0082019698 -0.24259317 -0.083220124 0.25660145
0.546 14.398 -1.744 -0.0018572169 -0.22673376 -0.072979271 0.2381966
0.498 14.321 -1.733 -0.01152917 -0.24604517 -0.085749507 0.26081434
0.47499999 14.302 -1.7309999 -0.010960923 -0.24587503 -0.08559233 0.26057765
0.43200001 14.37 -1.74 -0.012661738 -0.23913696 -0.081217706 0.25286978
0.38699999 14.372 -1.74 -0.0099074356 -0.23795095 -0.080335438 0.25134158
0.34 14.266 -1.725 -0.013133359 -0.24994002 -0.088461399 0.26545793
0.296 14.322 -1.733 -0.017322753 -0.2426015 -0.083713949 0.25722283
0.25099999 14.331 -1.734 -0.023123493 -0.24243048 -0.083965719 0.25759944
0.206 14.31 -1.7309999 -0.023268813 -0.24623229 -0.086520851 0.26202601
0.183 14.302 -1.73 -0.026780453 -0.25004607 -0.089417547 0.26690024
0.141 14.675 -1.78 -0.018662652 -0.19868495 -0.057758927 0.20775008
2.497 14.742 -1.918 0.14320585 -0.14057806 -0.051068515 0.20707029
1.477 14.246 -1.829 0.0095789284 -0.19841516 -0.056676 0.20657325
1.432 14.248 -1.829 0.0095505035 -0.20114407 -0.058120966 0.20959055
1.388 14.261 -1.83 0.0096890721 -0.20468873 -0.060054511 0.21353664
1.341 14.239 -1.826 0.0056090956 -0.21104534 -0.063550532 0.22047737
1.3049999 14.34 -1.84 0.0072830869 -0.20027098 -0.05769375 0.20854275
1.2869999 14.395 -1.848 0.0070851804 -0.19306019 -0.053953081 0.20058258
1.245 14.427 -1.852 0.0088505922 -0.19348189 -0.054193377 0.20112309
1.191 14.338 -1.839 0.0051208511 -0.21020851 -0.063133895 0.21954437
1.143 14.302 -1.8329999 0.0059731463 -0.21168788 -0.063936323 0.22121322
1.103 14.363 -1.841 0.0057470049 -0.21119644 -0.063702434 0.22066936
1.056 14.341 -1.837 0.0061359159 -0.21042922 -0.063242584 0.21981294
1.002 14.222 -1.8200001 0.0034565141 -0.22269695 -0.070312679 0.23355888
0.98000002 14.237 -1.822 0.0040076859 -0.21936963 -0.068335801 0.22980182
0.94300002 14.349 -1.837 0.0060858452 -0.21672535 -0.066853732 0.22688396
0.89600003 14.33 -1.834 0.0058258716 -0.21598834 -0.06640023 0.22603957
0.84600002 14.248 -1.822 0.0027952183 -0.22727385 -0.073121816 0.23876351
0.80500001 14.317 -1.832 0.0058839051 -0.21848087 -0.067855924 0.22885135
0.75999999 14.31 -1.83 0.0026245024 -0.22762871 -0.073387712 0.23918083
0.71499997 14.324 -1.832 0.003116884 -0.2234713 -0.070854247 0.23445566
0.69099998 14.284 -1.826 0.00023096241 -0.2312246 -0.07564503 0.24328385
0.64899999 14.355 -1.836 -0.00035283389 -0.22698051 -0.073066026 0.23845108
0.60600001 14.407 -1.8430001 -0.0011237608 -0.2277867 -0.073610276 0.2393878
0.55800003 14.333 -1.832 -0.0083628912 -0.24282099 -0.08344081 0.25689363
0.50999999 14.244 -1.819 -0.012888832 -0.25015062 -0.088565528 0.26567897
0.46700001 14.323 -1.83 -0.012306612 -0.25067812 -0.088978291 0.26628578
0.421 14.288 -1.825 -0.01090982 -0.25013465 -0.08851853 0.26555958
0.377 14.297 -1.826 -0.0081491256 -0.24930468 -0.087848723 0.26445535
0.35299999 14.258 -1.821 -0.012592847 -0.25435814 -0.091529727 0.27061844
0.30899999 14.267 -1.822 -0.011729312 -0.25384676 -0.091137171 0.26996619
0.266 14.401 -1.841 -0.016670149 -0.24183664 -0.083233565 0.25630194
0.219 14.263 -1.821 -0.02244892 -0.26490381 -0.099811703 0.28397247
0.177 14.47 -1.85 -0.023000669 -0.23441012 -0.078798324 0.24836729
1.4960001 14.243 -1.8940001 0.0086499481 -0.20159006 -0.058363408 0.2100468
1.4529999 14.262 -1.896 0.0089269923 -0.20435679 -0.059868813 0.21313296
1.406 14.244 -1.893 0.0081598433 -0.20956634 -0.062730521 0.21890581
1.3609999 14.243 -1.892 0.0064190477 -0.20931858 -0.062581003 0.21856774
1.316 14.249 -1.892 0.0048458073 -0.21315601 -0.064752817 0.22282705
1.273 14.273 -1.895 0.0051926021 -0.21591665 -0.066359729 0.22594374
1.248 14.245 -1.891 0.0049745222 -0.21705964 -0.066999227 0.22721913
1.205 14.267 -1.893 0.0052786041 -0.213908 -0.065181643 0.2236809
1.159 14.255 -1.891 0.0043750945 -0.21892607 -0.068096489 0.22931397
1.113 14.242 -1.8890001 0.0036077772 -0.22316076 -0.070611089 0.23409328
1.068 14.248 -1.8890001 0.003725396 -0.22382466 -0.071015447 0.23485006
1.023 14.253 -1.8890001 0.0029902372 -0.22209446 -0.069978565 0.23287742
0.97799999 14.244 -1.887 0.0033430541 -0.22293848 -0.070475847 0.23383667
0.935 14.271 -1.891 0.006887353 -0.21825257 -0.067681581 0.22860974
0.91299999 14.282 -1.892 0.0061760745 -0.21785381 -0.067455947 0.2281419
0.86699998 14.269 -1.89 0.0037032608 -0.22769187 -0.073384464 0.23925422
0.82300001 14.282 -1.891 0.0040944209 -0.22805527 -0.073615462 0.2396773
0.778 14.296 -1.893 0.0030954212 -0.22842574 -0.073863685 0.24009112
0.73299998 14.297 -1.893 0.00066681672 -0.2317093 -0.075941294 0.24383749
0.68800002 14.297 -1.893 -0.001143442 -0.23641275 -0.078986824 0.24926133
0.64300001 14.285 -1.891 -0.0060443836 -0.24270068 -0.083229989 0.25664642
0.62099999 14.294 -1.892 -0.0069533875 -0.24220628 -0.082937866 0.25610724
0.574 14.254 -1.886 -0.010217676 -0.25040528 -0.088627577 0.26582333
0.528 14.225 -1.881 -0.013186697 -0.24959786 -0.088177353 0.26504382
0.48500001 14.254 -1.885 -0.011865005 -0.249138 -0.087827086 0.26443169
0.43900001 14.232 -1.882 -0.012024725 -0.25447056 -0.091562867 0.27070946
0.39500001 14.251 -1.8839999 -0.0092946067 -0.2535542 -0.09081623 0.26948786
0.34999999 14.246 -1.883 -0.012042627 -0.26006532 -0.095613509 0.27734625
0.30500001 14.255 -1.885 -0.016134918 -0.26429796 -0.098950744 0.28267473
0.28299999 14.273 -1.887 -0.02023647 -0.26532671 -0.099987864 0.28426284
0.23899999 14.317 -1.8940001 -0.022476658 -0.26510268 -0.10000911 0.28422958
0.19400001 14.318 -1.8940001 -0.024420653 -0.25943699 -0.095953047 0.2776885
0.148 14.194 -1.875 -0.024877662 -0.26835752 -0.10255006 0.28835943
1.4529999 13.882 -1.941 -0.0031807818 -0.22192319 -0.069707066 0.23263511
1.41 13.889 -1.941 -0.0024195462 -0.2039607 -0.059450448 0.21246217
1.3890001 13.897 -1.942 -0.0010648258 -0.21226218 -0.064034343 0.22171324
1.346 13.907 -1.943 -0.0010540867 -0.21910323 -0.06799382 0.22941338
1.303 13.919 -1.944 0.00012138812 -0.2232729 -0.070463359 0.23412794
1.26 13.937 -1.946 -0.0010599643 -0.24982922 -0.087649733 0.2647607
1.217 13.949 -1.948 -0.0043157544 -0.25410885 -0.090735286 0.26985705
1.173 13.947 -1.947 -0.0047580427 -0.25899857 -0.094236255 0.27565083
1.1289999 13.952 -1.947 -0.0087474566 -0.26850072 -0.10144261 0.28715807
1.108 13.966 -1.949 -0.0069976775 -0.27401489 -0.10566092 0.29376411
1.0650001 13.983 -1.951 -0.0062320358 -0.27905157 -0.10966158 0.29989046
1.021 13.975 -1.949 -0.0060713454 -0.28364402 -0.11339399 0.30553067
0.977 13.976 -1.949 -0.0053938236 -0.28427377 -0.11389303 0.30628791
0.93300003 13.983 -1.949 -0.006032275 -0.28813368 -0.11715892 0.31110066
0.889 13.985 -1.949 -0.0077510159 -0.29317015 -0.12154147 0.31746048
0.84500003 13.99 -1.95 -0.0094386721 -0.29182923 -0.12045527 0.31585258
0.80199999 13.999 -1.951 -0.010507915 -0.29335245 -0.1218411 0.31782281
0.77999997 14.01 -1.952 -0.011504898 -0.29360053 -0.12212208 0.31819403
0.73699999 14.024 -1.954 -0.01035672 -0.29037845 -0.11931399 0.31410623
0.69300002 14.022 -1.9529999 -0.015097706 -0.29262733 -0.12151033 0.31721202
0.64899999 14.038 -1.955 -0.014853261 -0.29100502 -0.12011194 0.31516886
0.60500002 14.036 -1.955 -0.013310763 -0.28937784 -0.11863714 0.31303591
0.56099999 14.046 -1.956 -0.017781522 -0.28213587 -0.11284289 0.30438522
0.51700002 14.044 -1.955 -0.018505514 -0.28475946 -0.11505944 0.30768341
0.495 14.05 -1.956 -0.015080551 -0.28094667 -0.1117104 0.30271715
0.45100001 14.068 -1.959 -0.014279722 -0.28070864 -0.1115011 0.30238011
0.40700001 14.061 -1.9579999 -0.017332453 -0.28670728 -0.11661649 0.31000143
0.36300001 14.076 -1.96 -0.018922629 -0.28755528 -0.11744678 0.31119102
0.31799999 14.056 -1.956 -0.025797462 -0.28904584 -0.11920342 0.31372353
0.27500001 14.072 -1.959 -0.026959667 -0.28345945 -0.1146166 0.30694145
0.20900001 14.117 -1.965 -0.026587363 -0.27847403 -0.11056447 0.30079758
