# .PCD v0.7 - Point Cloud Data file format
VERSION 0.7
FIELDS x y z normal_x normal_y normal_z curvature
SIZE 4 4 4 4 4 4 4
TYPE F F F F F F F
COUNT 1 1 1 1 1 1 1
WIDTH 175
HEIGHT 1
VIEWPOINT 0 0 0 1 0 0 0
POINTS 175
DATA ascii
-30.295 25.209 1.5420001 0.44242725 -0.14331979 -0.28518233 0.54553771
-30.292999 25.046 1.538 0.42045224 -0.15927146 -0.25785026 0.51829934
-30.452999 25.018 1.5420001 0.38243386 -0.16178812 -0.20405585 0.46267682
-30.365 24.865999 1.536 0.36317298 -0.1469498 -0.1758824 0.42944553
-30.427999 24.757999 1.536 0.34166628 -0.11218753 -0.13905284 0.38556138
-30.523001 24.676001 1.536 0.15787244 -0.11773338 -0.039017111 0.2007665
-30.242001 25.362 1.293 0.49022415 -0.070217095 -0.35299072 0.60815507
-30.332001 25.275999 1.294 0.38601846 -0.13294904 -0.19363993 0.45186517
-30.412001 25.181 1.294 0.3909432 -0.23026457 -0.27446073 0.53027076
-30.701 25.257999 1.301 0.44123355 -0.18651423 -0.68006718 0.83184493
-30.599001 25.013 1.295 0.29672393 -0.1370644 -0.11186019 0.34546265
-30.708 25.021999 1.2970001 0.26886618 -0.11996751 -0.086959392 0.3069905
-31.025 25.118999 1.306 0.14831924 -0.18786611 -0.06192404 0.24723846
-31.278 25.162001 1.312 -0.040527586 0.4693771 -0.29000258 0.55322587
-31.437 25.128 1.314 0.041871138 0.44287056 -0.23402858 0.50264984
-30.781 24.129999 1.283 0.50674176 -0.062202305 -0.54410601 0.74612844
-30.863001 24.038 1.284 0.50642902 -0.041311085 -0.56584185 0.76049584
-30.833 23.937 1.281 0.48610613 -0.13722962 -0.4686377 0.68902278
-29.788 25.778 1.1059999 0.50964725 0.080183759 -0.4318631 0.67281163
-29.899 25.711 1.1059999 0.51814967 0.0012976862 -0.49170348 0.71432
-29.889 25.539 1.104 0.51762241 -0.0090870578 -0.49465716 0.71603155
-29.969 25.445 1.104 0.51656324 -0.029866602 -0.49128622 0.71350664
-30.072001 25.370001 1.104 0.50135398 -0.05253477 -0.60997802 0.79132098
-30.125 25.253 1.104 0.49602178 -0.12143339 -0.54569983 0.74737674
-30.099001 25.150999 1.102 0.46182093 -0.17174336 -0.36962512 0.61595219
-30.400999 25.240999 1.108 0.4624016 -0.13159983 -0.67777675 0.83097237
-30.687 25.316 1.114 -0.26914737 0.14998974 -0.11501449 0.32888535
-30.065001 24.646 1.094 0.45004022 -0.14926013 -0.31440249 0.56891447
-30.118999 24.532 1.0930001 0.45028922 -0.14909373 -0.31761321 0.57084805
-30.243999 24.476999 1.094 0.4420571 -0.1580112 -0.30676782 0.56079274
-30.447001 24.483 1.098 0.43087113 -0.16817507 -0.28936133 0.5455848
-30.49 24.438999 1.098 0.44568682 -0.15914117 -0.31363106 0.56773859
-30.639999 24.243999 1.098 0.4644396 -0.15389514 -0.35983363 0.6073451
-30.693001 24.129 1.097 0.47776702 -0.15330215 -0.41838577 0.6533066
-30.797001 24.055 1.098 0.48103639 -0.14262664 -0.42876005 0.65997994
-31.134001 24.160999 1.1059999 0.4806478 0.16798654 -0.61869484 0.8012647
-29.764 25.754 0.80599999 0.51561493 0.04383811 -0.46459019 0.69543123
-30.077 25.533001 0.80800003 0.5122571 -0.052156229 -0.53947765 0.74576384
-30.511999 25.575001 0.81300002 0.47345784 -0.095642358 -0.67783004 0.83232403
-30.473 25.379 0.81099999 0.50776017 0.0012732781 -0.61229956 0.79544502
-29.931 24.848 0.79900002 0.48248768 -0.12769607 -0.39175415 0.6344856
-29.971001 24.722 0.79900002 0.49327749 -0.098216586 -0.40301794 0.64450961
-30.608999 25.087999 0.81 0.49332443 -0.10828508 -0.60645831 0.78923148
-30.403999 24.761 0.80400002 0.49540222 -0.13233146 -0.4817768 0.70359349
-30.541 24.712999 0.80500001 0.49872157 -0.12201783 -0.51581472 0.72778869
-30.658001 24.098 0.801 0.45386446 -0.21563731 -0.52590048 0.72736764
-30.921 24.148001 0.80500001 0.45587063 -0.21086635 -0.52763289 0.72847724
-30.663 23.792 0.79799998 0.36430728 -0.32627574 -0.44275022 0.6596995
-30.638 23.618999 0.796 0.37124214 -0.31850982 -0.45237648 0.66626847
-30.792 23.583 0.79799998 -0.15830824 0.49606022 -0.53349745 0.74549097
-31.983999 23.476999 0.81099999 0.37421453 -0.28958875 -0.37386096 0.60305071
-32.240002 23.509001 0.815 0.39545241 0.32437402 -0.41630879 0.65948021
-30.306999 25.176001 0.60500002 0.51324534 -0.010745741 -0.57666558 0.77206177
-30.344999 25.046 0.60500002 0.50798291 -0.054976888 -0.57426262 0.76866549
-30.427 25.034 0.60500002 0.50829893 -0.055886552 -0.5759362 0.7701906
-30.698999 24.775999 0.60600001 0.51472169 -0.019147703 -0.562675 0.76282907
-30.993 24.298 0.60500002 0.44549397 -0.18045671 -0.65521014 0.81260681
-30.575001 23.816 0.59899998 -0.36652955 0.338597 -0.41500294 0.64901412
-30.558001 23.649 0.59799999 -0.29049942 0.42358717 -0.49333757 0.71217835
-30.635 23.555 0.59799999 -0.19650435 0.48055741 -0.4662019 0.69777763
-30.705999 23.457001 0.59799999 -0.16900212 0.49355614 -0.52104026 0.73732108
-31.966 23.711 0.60900003 0.38283101 -0.23805451 -0.29528952 0.53891134
-31.966999 23.247 0.60699999 0.36583403 -0.29850736 -0.38349235 0.60828251
-30.948999 26.056 0.33399999 -0.19331162 -0.020324167 -0.05151403 0.20108742
-30.988001 25.923 0.33399999 0.14791299 -0.2742866 -0.1127435 0.33139476
-30.653 25.478001 0.33199999 0.49217677 -0.14522508 -0.45597658 0.68647134
-30.756001 25.400999 0.333 0.51057446 -0.084236823 -0.44772685 0.68428171
-30.674999 25.172001 0.33199999 0.51209748 -0.007598687 -0.59697723 0.78656429
-30.194 24.540001 0.329 0.47278148 -0.093547158 -0.66962343 0.82502663
-30.069 24.282 0.329 0.46730027 -0.1145459 -0.6613704 0.81786376
-30.242001 24.264999 0.329 0.45492426 -0.14353967 -0.67024416 0.82267064
-30.356001 24.200001 0.329 0.44166657 -0.16469938 -0.68172455 0.82882059
-30.402 24.080999 0.329 -0.38240117 0.23705056 -0.28363344 0.53185672
-30.422001 23.941999 0.329 -0.38798061 0.24185298 -0.29604721 0.54467034
-30.882999 24.148001 0.33000001 -0.32954714 0.30200779 -0.26671678 0.52052653
-30.759001 23.973 0.33000001 -0.35437351 0.33649966 -0.36830303 0.61193115
-30.440001 23.570999 0.32800001 -0.20126878 0.39542326 -0.2374998 0.50326419
-30.981001 23.834999 0.33000001 -0.2875261 0.38478756 -0.32503563 0.57998353
-31.198999 23.847 0.331 -0.24699116 0.32230163 -0.19528064 0.45057464
-31.322001 23.785 0.331 -0.257276 0.28300849 -0.16975588 0.41845167
-31.648001 23.643999 0.331 -0.31947669 0.39869124 -0.48035574 0.70125723
-31.766001 23.577 0.33199999 0.31763133 -0.33876514 -0.34786278 0.5802241
-31.802999 23.448999 0.331 0.32881334 -0.33947754 -0.38194069 0.60765278
-32.030998 23.462999 0.33199999 0.3377645 -0.325553 -0.37171751 0.59853446
-31.92 23.075001 0.331 0.40014377 -0.25586906 -0.38922077 0.61406583
-32.022999 22.996 0.331 0.43119842 -0.20729591 -0.3950178 0.62043756
-32.153999 23.014 0.331 0.43830079 -0.19503026 -0.39733392 0.62291139
-32.078999 22.808001 0.331 0.44983608 -0.1668413 -0.39632756 0.62230545
-30.643999 25.639 0.145 0.44738707 -0.15216599 -0.30246627 0.56106639
-30.790001 25.597 0.14399999 0.42176196 -0.20731178 -0.29941225 0.55723339
-30.972 25.584 0.14399999 0.46319023 0.15402105 -0.70143151 0.85456061
-31.212 25.617001 0.14399999 0.051939972 0.43092349 -0.78290385 0.89517111
-30.264999 24.445999 0.146 0.4514266 -0.094698764 -0.7157343 0.85148656
-30.306999 24.323 0.146 0.44348222 -0.11132845 -0.72130573 0.85402137
-30.858999 24.607 0.145 -0.36925751 0.20002803 -0.23890021 0.48315176
-30.754 24.365999 0.146 -0.34443638 0.22781244 -0.22101298 0.46838197
-30.813 24.254999 0.146 -0.30267474 0.2427056 -0.18201107 0.42853943
-31.195 24.396999 0.145 -0.24280222 0.31475371 -0.18855235 0.43997136
-31.353001 23.969999 0.145 -0.24974851 0.27756584 -0.16049117 0.40641668
-31.209 23.705 0.146 -0.26059747 0.23610575 -0.13989362 0.37845367
-31.423 23.712999 0.145 -0.33262599 0.33607447 -0.32133782 0.57170278
-31.591999 23.375999 0.146 0.28943065 -0.36705092 -0.36638069 0.59391183
-31.618999 23.319 0.146 0.30367866 -0.33591032 -0.31931651 0.55409342
-31.639 23.181 0.146 0.37487203 -0.2951107 -0.39311004 0.61818677
-31.777 23.129 0.146 0.37856951 -0.28595608 -0.38796407 0.61286366
-32.025002 23.003 0.145 0.42859623 -0.21011192 -0.39162111 0.61742109
-32.125 22.922001 0.145 0.43471256 -0.19064721 -0.37779492 0.60667157
-32.224998 22.841 0.145 0.44105375 -0.15315163 -0.34660643 0.58148074
-32.501999 22.961 0.145 0.26129884 -0.13307491 -0.10332724 0.31090599
-29.875 25.9 -0.106 0.46288082 -0.16068013 -0.36371112 0.61021513
-29.995001 25.84 -0.106 0.47236228 -0.15641077 -0.3864693 0.63003886
-30.148001 25.806999 -0.107 0.45431447 -0.17113325 -0.34465826 0.59538019
-30.076 25.583 -0.105 0.46423662 -0.19453609 -0.42903101 0.66138303
-30.146999 25.48 -0.105 0.46676287 -0.18459511 -0.41876376 0.65368646
-30.282 25.431999 -0.106 0.46989882 -0.16799347 -0.39809951 0.63836503
-30.372999 25.427 -0.106 0.45067027 -0.20541199 -0.39040366 0.63064474
-30.347 25.243 -0.105 0.46774334 -0.19635552 -0.52943736 0.73324162
-30.368999 25.1 -0.105 0.47475919 -0.14714839 -0.61523771 0.79092753
-30.448 25.004999 -0.105 0.46057707 -0.16790384 -0.63513935 0.80232471
-30.858999 25.02 -0.107 0.44067198 -0.15916425 -0.70495051 0.84645158
-30.743999 24.767 -0.105 0.44439763 -0.10171983 -0.73250544 0.86278641
-30.712999 24.583 -0.104 -0.34619725 0.27421075 -0.26686502 0.51600486
-30.768 24.548 -0.104 -0.32340631 0.29457027 -0.25544539 0.50657243
-30.847 24.452 -0.104 -0.25441092 0.34516734 -0.22892591 0.48607868
-31.559999 24.538 -0.109 -0.24131344 0.31363997 -0.18805847 0.43814173
-31.669001 23.445999 -0.105 0.40084711 -0.27770662 -0.42809632 0.64889586
-31.948 23.497999 -0.107 0.43469548 -0.22018383 -0.42103362 0.64398015
-32.049999 23.495001 -0.107 0.43143815 -0.15498494 -0.30944794 0.55309784
-31.789 23.15 -0.104 0.391765 -0.2646682 -0.37555066 0.60379416
-32.048 23.184999 -0.106 0.36231357 -0.26224062 -0.30594993 0.54189169
-32.206001 23.146 -0.107 0.36107746 -0.25784117 -0.29770225 0.53430855
-32.367001 23.108 -0.108 0.27201077 -0.37035441 -0.35769805 0.58232307
-32.429001 22.999001 -0.108 0.40534145 -0.26669639 -0.46769854 0.67392182
-29.979 26.304001 -0.354 0.51601541 0.036234666 -0.53235126 0.74228209
-30.117001 26.257999 -0.35499999 0.51682174 0.013460563 -0.54373914 0.75029206
-30.174 26.141001 -0.354 0.51810259 0.0081099123 -0.52764952 0.73953366
-30.073999 25.889999 -0.35100001 0.50000745 -0.11377554 -0.47339627 0.69789422
-29.99 25.736 -0.34799999 0.48704541 -0.14375356 -0.44712681 0.67660969
-29.863001 25.465 -0.345 0.46847376 -0.18408319 -0.44363093 0.67094165
-29.889999 25.326 -0.34400001 0.45848429 -0.2062254 -0.44912189 0.67412704
-30.379 25.577 -0.35100001 0.39614353 -0.29976618 -0.43408388 0.65971076
-30.386 25.42 -0.34999999 0.41839638 -0.27706581 -0.47435889 0.69053411
-30.481001 25.337 -0.34999999 0.42021501 -0.27613902 -0.52841747 0.72942334
-30.579 25.256001 -0.34999999 0.40264648 -0.29799432 -0.53378236 0.73201668
-30.738001 24.983999 -0.34999999 -0.35811821 0.26328015 -0.27972203 0.52517569
-30.726 24.813999 -0.34799999 -0.36535451 0.17536004 -0.21960273 0.46093431
-30.791 24.708 -0.34799999 -0.31587175 0.27484584 -0.22721526 0.47638428
-30.976 24.697001 -0.34999999 -0.26781508 0.34083584 -0.24406871 0.49745706
-31.388 24.864 -0.35600001 -0.24305817 0.44008869 -0.43105024 0.66223836
-31.504 24.875 -0.35699999 -0.16904014 0.31515267 -0.1425395 0.38498479
-31.525 24.413 -0.35299999 -0.2538923 0.34850734 -0.23496601 0.49104756
-31.608 24.319 -0.35299999 -0.23577808 0.30486238 -0.17384654 0.42279425
-31.805 24.311001 -0.35600001 -0.26155227 0.25469381 -0.15631559 0.39713109
-31.521 23.705 -0.347 0.48128992 -0.10708396 -0.62438983 0.79559386
-31.521 23.243999 -0.34299999 0.37667349 -0.30756572 -0.4349125 0.6524021
-31.549999 23.113001 -0.34299999 0.37496173 -0.305581 -0.43198752 0.64852852
-31.733 23.093 -0.345 0.35562643 -0.32215232 -0.4281286 0.6430757
-31.865 23.037001 -0.34599999 0.3740463 -0.29381385 -0.40200266 0.62277073
-31.788 22.905001 -0.34400001 0.38872629 -0.26868594 -0.38520187 0.60965627
-29.969999 26.315001 -0.63099998 0.49812344 0.043168709 -0.63346994 0.8070159
-30.004999 26.18 -0.63 0.50924689 0.040788248 -0.58839554 0.77923387
-30.079 26.077999 -0.63 0.5125708 0.058328442 -0.56608433 0.76588672
-31.035 24.922001 -0.63 -0.26714322 0.30526099 -0.2063387 0.45511037
-31.448 24.93 -0.63599998 -0.17243943 0.34537449 -0.17167059 0.4224804
-31.368 24.547001 -0.63 -0.24565621 0.36676493 -0.2510401 0.50782341
-31.377001 24.474001 -0.62900001 -0.22956303 0.40086231 -0.2857675 0.54318768
-31.461 24.382 -0.63 -0.18179978 0.45947868 -0.35865724 0.61057907
-31.809999 24.493 -0.63700002 -0.33542711 0.14468919 -0.16913977 0.40256003
-32.116001 24.409 -0.64099997 -0.13363665 0.46361497 -0.32013172 0.57903534
-32.087002 24.228001 -0.63800001 -0.32847378 0.20622039 -0.18716517 0.43064216
-31.488001 23.236 -0.61500001 0.42007303 -0.25855568 -0.45815048 0.67321187
-31.593 23.16 -0.616 0.36712202 -0.31705499 -0.44736886 0.6598798
-31.688999 23.077999 -0.61699998 0.37556827 -0.30471677 -0.44253778 0.65554827
-31.197001 24.716 -0.833 -0.23752327 0.36330965 -0.24022862 0.49610585
-31.216 24.572001 -0.83099997 -0.23184216 0.38322353 -0.26057822 0.5181815
