# .PCD v0.7 - Point Cloud Data file format
VERSION 0.7
FIELDS x y z normal_x normal_y normal_z curvature
SIZE 4 4 4 4 4 4 4
TYPE F F F F F F F
COUNT 1 1 1 1 1 1 1
WIDTH 439
HEIGHT 1
VIEWPOINT 0 0 0 1 0 0 0
POINTS 439
DATA ascii
-4.8340001 15.75 0.76599997 0.43840098 0.28174078 -0.5310387 0.74402648
-4.882 15.729 0.76599997 0.43841314 0.28173569 -0.53048295 0.74363518
-4.9400001 15.742 0.76700002 0.43691233 0.28407401 -0.53263569 0.74517864
-4.948 15.597 0.76200002 0.42969409 0.29545906 -0.53714865 0.74863988
-4.9860001 15.545 0.76099998 0.42967486 0.29536471 -0.53715599 0.74859691
-5.1059999 15.75 0.76899999 0.42755431 0.29837278 -0.54147452 0.75168055
-4.836 15.782 0.662 0.42970863 0.29644337 -0.53332329 0.74629879
-4.8709998 15.717 0.66100001 0.43007299 0.29546514 -0.5348686 0.74722612
-4.8979998 15.719 0.66100001 0.43004954 0.29544699 -0.53487009 0.74720651
-4.9099998 15.583 0.65799999 0.42931762 0.29606333 -0.53762281 0.74900293
-4.9580002 15.564 0.65700001 0.42927897 0.29601434 -0.5376268 0.74896431
-5.072 15.754 0.66299999 0.42778552 0.29798362 -0.54180932 0.75189894
-4.8369999 15.787 0.58399999 0.42842612 0.29789519 -0.53768456 0.74926311
-4.8769999 15.739 0.58399999 0.42967167 0.2957375 -0.5375672 0.74903733
-4.9260001 15.724 0.58399999 0.42965573 0.2956945 -0.5375706 0.7490136
-4.9419999 15.604 0.58099997 0.42928377 0.29607484 -0.53762215 0.74898762
-4.9660001 15.594 0.58099997 0.42927158 0.29604322 -0.5376246 0.74896985
-4.9679999 15.434 0.57800001 0.42927858 0.29578856 -0.53764391 0.74888712
-4.8439999 15.704 0.458 0.43545356 0.28784624 -0.52152133 0.73787516
-4.8860002 15.665 0.45699999 0.43386936 0.29029658 -0.5232603 0.73913199
-4.9190001 15.597 0.456 0.43384933 0.29017344 -0.5232693 0.73907822
-4.9640002 15.568 0.456 0.43382034 0.29011485 -0.52327389 0.73904145
-5.0900002 15.794 0.46000001 0.43454829 0.28869066 -0.52741587 0.74185038
-4.8860002 15.694 0.373 0.43243852 0.29298222 -0.52046663 0.7373786
-4.9260001 15.652 0.373 0.43242007 0.29288939 -0.52047384 0.73733598
-4.9580002 15.583 0.373 0.43344286 0.29103863 -0.52041447 0.73716176
-5.0100002 15.575 0.373 0.43342251 0.29102731 -0.52041537 0.73714596
-5.119 15.828 0.375 0.43552396 0.28739101 -0.52315044 0.73889178
-4.8299999 15.603 0.25799999 0.4352231 0.28850681 -0.51611173 0.73418432
-4.868 15.551 0.25799999 0.43293852 0.29218513 -0.51778466 0.73546505
-4.915 15.53 0.25799999 0.43291217 0.29214326 -0.51778799 0.73543531
-4.9679999 15.528 0.25799999 0.43286633 0.29211646 -0.51779026 0.73539925
-5.1290002 15.861 0.259 0.43771791 0.2839444 -0.51884246 0.73581171
-4.888 15.638 0.18099999 0.43213555 0.29376012 -0.51598006 0.73435116
-4.9130001 15.633 0.18099999 0.43341848 0.29148763 -0.51590341 0.73414779
-4.9759998 15.661 0.18099999 0.43059158 0.29613486 -0.51714909 0.73521978
-5.0209999 15.632 0.18099999 0.43163446 0.29430115 -0.51709569 0.73505741
-5.1680002 15.914 0.18099999 0.43409288 0.29024571 -0.51950198 0.73658776
-4.8610001 15.638 0.077 0.38873908 0.35484552 -0.52479231 0.74326336
-4.8969998 15.578 0.077 0.39055201 0.35248333 -0.52476275 0.74306887
-4.9429998 15.555 0.077 0.32284209 0.42061076 -0.53089797 0.75032866
-5.007 15.587 0.077 0.32283464 0.42066491 -0.53089392 0.75035292
-5.105 15.808 0.075000003 0.25725135 0.46717948 -0.53280556 0.75386781
-4.8670001 15.652 -0.024 0.2582176 0.467089 -0.52429718 0.74815506
-4.8990002 15.585 -0.023 0.22612229 0.48448673 -0.5246799 0.74909794
-4.948 15.569 -0.023 0.15940605 0.51186728 -0.52632183 0.75128764
-5.006 15.582 -0.024 0.13490583 0.51923805 -0.52688056 0.75193805
-5.0170002 15.449 -0.022 0.10940776 0.52507836 -0.5299781 0.75402528
-4.8730001 15.676 -0.139 0.22064172 0.48734868 -0.52419567 0.748981
-4.881 15.615 -0.138 0.20881285 0.4927538 -0.52469987 0.74947923
-4.9359999 15.617 -0.138 0.17500575 0.50660658 -0.52450496 0.7499218
-4.941 15.464 -0.13500001 0.10304236 0.52690935 -0.52249956 0.7491709
-5.0409999 15.608 -0.139 0.13579251 0.51922673 -0.52249789 0.74902606
-4.9299998 15.684 -0.22400001 0.18775544 0.50152057 -0.52901191 0.75274736
-4.9660001 15.627 -0.223 0.15959387 0.51185471 -0.52616787 0.75121105
-5.02 15.628 -0.223 0.090687931 0.52972567 -0.5170477 0.74576932
-5.0830002 15.654 -0.22400001 0.058124572 0.53463775 -0.51203054 0.74255723
-4.915 15.634 -0.31999999 0.11788961 0.52365774 -0.52671194 0.75202447
-4.9499998 15.572 -0.31900001 0.079553261 0.53134233 -0.52113539 0.74848878
-5.006 15.58 -0.31900001 0.046667486 0.53546888 -0.51811552 0.74655771
-5.0300002 15.57 -0.31900001 0.032999396 0.53654104 -0.51605821 0.74517202
-4.881 15.679 -0.42899999 0.077888437 0.53175783 -0.52149862 0.74886167
-4.9200001 15.632 -0.428 0.045189559 0.53552186 -0.52222061 0.74935979
-4.96 15.589 -0.42699999 0.039027281 0.53585207 -0.5236752 0.75026417
-5.0949998 15.838 -0.43700001 -0.1069008 0.52347302 -0.4487693 0.6977433
-4.8860002 15.659 -0.52600002 0.0016226767 0.53775674 -0.51097965 0.74181205
-4.9289999 15.623 -0.52499998 -0.0074139447 0.53750551 -0.51386356 0.74365509
-4.9840002 15.626 -0.52600002 -0.014247625 0.53730565 -0.51397085 0.74368435
-5.04 15.631 -0.52700001 0.0022083102 0.53737348 -0.51970315 0.74757373
-4.8920002 15.606 -0.61799997 -0.023533568 0.53699005 -0.5100708 0.74100226
-4.9310002 15.56 -0.616 -0.032283224 0.53623158 -0.51461661 0.74391985
-5.0370002 15.805 -0.63 -0.11139952 0.524288 -0.47413868 0.7156083
-4.8670001 15.6 -0.72100002 -0.023641305 0.53690606 -0.5122515 0.74244773
-4.9099998 15.567 -0.72000003 -0.025667593 0.53647923 -0.51913375 0.74697298
-4.9530001 15.533 -0.71899998 -0.02587403 0.5360595 -0.52601457 0.75147891
-5.0310001 15.607 -0.72399998 -0.055609591 0.53398335 -0.51745462 0.74564731
-4.6350002 18.469 -0.97500002 0.15633193 -0.11615531 -0.051731318 0.2015139
-4.658 18.441 -0.97399998 0.17390841 -0.11980671 -0.059582829 0.21942629
-4.691 18.327999 -0.96799999 0.25151551 -0.13027151 -0.10302758 0.3014057
-4.723 18.214001 -0.96100003 0.33462751 -0.1536096 -0.18350226 0.41139343
-4.7690001 18.159 -0.95899999 0.40654275 -0.15118402 -0.28141028 0.51703519
-4.8070002 18.07 -0.954 0.42197365 -0.14356537 -0.30481505 0.53998613
-4.8410001 17.969999 -0.949 0.45420703 -0.13103756 -0.37956801 0.60625637
-4.8920002 17.936001 -0.94700003 0.46116883 -0.12574127 -0.39998803 0.62327999
-4.9380002 17.886 -0.94499999 0.46030787 -0.12031224 -0.38710135 0.61335623
-4.967 17.879999 -0.94499999 0.46165878 -0.11306472 -0.38213843 0.60987067
-4.9819999 17.719999 -0.93599999 0.46928701 -0.11017886 -0.41049892 0.6331501
-5.0139999 17.620001 -0.93099999 0.47115007 -0.1068586 -0.41344252 0.63587409
-5.0549998 17.554001 -0.92699999 0.47327244 -0.10040383 -0.4130947 0.63617212
-5.085 17.454 -0.92199999 0.47665846 -0.088009663 -0.41045648 0.63515627
-5.1100001 17.337 -0.91500002 0.47335905 -0.083217964 -0.3872411 0.61721122
-5.2210002 17.507999 -0.92699999 0.47645432 -0.094882756 -0.42184398 0.64340019
-5.1960001 17.327999 -0.91600001 0.47409233 -0.078714162 -0.38556099 0.61613047
-5.2839999 17.42 -0.92299998 0.47757208 -0.089052103 -0.41733396 0.6404475
-5.224 17.031 -0.89899999 0.4646731 -0.07522364 -0.34722784 0.58493322
-5.2410002 16.896999 -0.89200002 0.47667694 -0.071622521 -0.38642019 0.61779547
-4.9070001 15.652 -0.81199998 -0.038663309 0.53416914 -0.5427686 0.76251507
-4.9419999 15.595 -0.80900002 -0.028472554 0.53381217 -0.5527336 0.76894772
-4.9970002 15.596 -0.81 -0.029279092 0.5334956 -0.55497146 0.77036887
-5.033 15.625 -0.81300002 -0.028520977 0.53293425 -0.56048936 0.77393842
-5.2979999 16.267 -0.85600001 0.4293752 -0.088465169 -0.72547626 0.84764671
-5.336 16.212 -0.85299999 0.43614578 -0.096708544 -0.70722151 0.83650345
-5.3379998 16.049999 -0.84399998 0.45099914 -0.10405825 -0.66751564 0.81228411
-5.3540001 15.929 -0.83700001 0.44189194 -0.13301373 -0.6647926 0.80926532
-5.2979999 15.602 -0.81699997 -0.06652984 0.52891999 -0.56051874 0.77353984
-5.3470001 15.587 -0.81699997 -0.055440005 0.52911347 -0.56936359 0.77923656
-5.4380002 15.691 -0.82499999 -0.078448735 0.52765304 -0.5567205 0.77104449
-5.4759998 15.72 -0.82700002 -0.12319466 0.52101952 -0.5234831 0.74878091
-5.513 15.667 -0.82499999 -0.069651052 0.52937126 -0.55306536 0.76874346
-5.6290002 15.836 -0.83700001 -0.33610988 0.3781018 -0.35856256 0.62007898
-5.6539998 15.75 -0.833 -0.12019115 0.52023202 -0.54449409 0.76260155
-5.6859999 15.686 -0.829 -0.028732976 0.52604997 -0.60060894 0.79892761
-5.7579999 15.728 -0.833 -0.060688864 0.52585065 -0.58584666 0.78956848
-5.8969998 15.951 -0.84899998 0.42851961 -0.12534983 -0.70283598 0.83265841
-4.6199999 18.306 -1.097 0.22445934 -0.15210685 -0.09728995 0.28806913
-4.6370001 18.132999 -1.086 0.36947054 -0.17700645 -0.24354208 0.47660521
-4.6919999 18.108999 -1.085 0.39661351 -0.16991344 -0.28070819 0.51475233
-4.7179999 18.094 -1.084 0.41057813 -0.15843526 -0.29585236 0.53028744
-4.7210002 17.874001 -1.0700001 0.44933286 -0.1454336 -0.38197914 0.60741997
-4.763 17.806999 -1.066 0.4586015 -0.13374689 -0.40030527 0.62325585
-4.802 17.728001 -1.062 0.46648446 -0.12154157 -0.41624057 0.63689584
-4.8449998 17.667 -1.058 0.46992305 -0.11084361 -0.41415584 0.63611245
-4.8829999 17.587999 -1.054 0.47181946 -0.10498451 -0.412862 0.63568103
-4.9039998 17.448 -1.045 0.47476155 -0.0893244 -0.40202123 0.62848902
-4.8930001 17.306 -1.035 0.47203657 -0.085271046 -0.38321134 0.6139549
-4.9330001 17.238001 -1.0319999 0.47313115 -0.081400841 -0.38301685 0.6141507
-5 17.267 -1.035 0.47770214 -0.078542531 -0.40028587 0.6281696
-4.9949999 17.049999 -1.02 0.4694033 -0.082075886 -0.36867076 0.60248989
-5.0339999 16.985001 -1.017 0.47293907 -0.085263059 -0.38533345 0.61597323
-5.039 16.806 -1.005 0.47302818 -0.077715591 -0.37724769 0.61000919
-5.0840001 16.764999 -1.003 0.47506413 -0.06949015 -0.37736633 0.61067188
-5.1700001 16.858 -1.011 0.48287702 -0.082433395 -0.43425912 0.65463459
-5.1240001 16.613001 -0.99400002 0.49167928 -0.056856323 -0.46132979 0.67661387
-4.8759999 15.629 -0.92400002 -0.039349854 0.52771652 -0.58914804 0.79191446
-4.9180002 15.593 -0.92299998 -0.031605273 0.52761656 -0.59248292 0.79398626
-4.9679999 15.579 -0.92299998 -0.031878833 0.52601904 -0.60014743 0.79867965
-5.0279999 15.598 -0.92500001 -0.039900433 0.52336407 -0.60950905 0.80436516
-5.2719998 16.184 -0.96899998 0.45673651 -0.095730633 -0.6584295 0.80703282
-5.2480001 15.939 -0.95200002 0.44415545 -0.17191756 -0.60238922 0.76792091
-5.276 15.941 -0.95300001 0.44299763 -0.16841826 -0.61367899 0.7753796
-5.3130002 15.884 -0.94999999 0.4372775 -0.16821048 -0.63427156 0.78854728
-5.3579998 15.852 -0.949 0.40033385 -0.25044355 -0.59100342 0.75648808
-5.3410001 15.639 -0.935 -0.065894343 0.52303445 -0.59709346 0.79650974
-5.3509998 15.509 -0.92699999 -0.012267506 0.52210522 -0.6203807 0.81093562
-5.4039998 15.505 -0.92799997 -0.032397255 0.52293938 -0.61259681 0.80609554
-5.4510002 15.482 -0.92699999 0.00037581846 0.51711798 -0.63919735 0.82218271
-5.494 15.45 -0.926 -0.00060655153 0.51485384 -0.64640427 0.82638568
-5.5539999 15.541 -0.93300003 -0.0067864945 0.51570171 -0.64383298 0.82493347
-5.5809999 15.462 -0.92900002 0.0047416445 0.51003963 -0.6610803 0.83497906
-5.638 15.468 -0.93099999 -0.01463669 0.51458448 -0.64622355 0.82620597
-5.6960001 15.477 -0.93300003 -0.023937214 0.51348448 -0.64833045 0.82738847
-5.7519999 15.479 -0.93400002 -0.024651738 0.50959414 -0.66001868 0.83421737
-5.908 15.747 -0.95499998 -0.28851458 0.43513986 -0.58393931 0.78330868
-4.5799999 18.382 -1.194 0.16383941 -0.1458216 -0.066410571 0.22916731
-4.605 18.238001 -1.1849999 0.26060963 -0.17151442 -0.13032189 0.33811
-4.6350002 18.117001 -1.177 0.39113298 -0.18669254 -0.28841376 0.52059734
-4.6739998 18.035 -1.171 0.42618403 -0.17367768 -0.35116819 0.57889193
-4.7090001 17.938999 -1.165 0.44492128 -0.15587756 -0.38373342 0.60786849
-4.7740002 17.955 -1.168 0.4462525 -0.14993864 -0.37900105 0.60437131
-4.7649999 17.811001 -1.1569999 0.45637947 -0.14809301 -0.41923511 0.63715923
-4.7930002 17.693001 -1.149 0.4675647 -0.11821966 -0.415216 0.63639373
-4.8340001 17.622999 -1.145 0.47181886 -0.10440184 -0.41237879 0.63527083
-4.8660002 17.527 -1.1390001 0.47440988 -0.091780066 -0.40464628 0.63025939
-4.8850002 17.382999 -1.1289999 0.47619244 -0.082659543 -0.39929414 0.62691921
-4.908 17.256001 -1.1210001 0.4756687 -0.081859574 -0.39463302 0.62345564
-4.9580002 17.226999 -1.119 0.47626725 -0.079688042 -0.39459342 0.62360615
-5.0370002 17.396999 -1.133 0.47465149 -0.086809173 -0.39780998 0.62536603
-5.0949998 17.391001 -1.1339999 0.47483712 -0.085676506 -0.39749497 0.62515038
-5.0910001 17.18 -1.119 0.47673675 -0.08968205 -0.40998209 0.63514256
-5.0349998 16.799 -1.091 0.48269865 -0.082659319 -0.43320766 0.6538344
-5.1020002 16.829 -1.094 0.48324496 -0.082571611 -0.43705088 0.65677792
-5.118 16.695 -1.085 0.48499644 -0.073876932 -0.43331131 0.6545518
-5.178 16.701 -1.087 0.48599511 -0.072551809 -0.43879509 0.65878385
-4.9099998 15.667 -1.008 -0.061749313 0.51877785 -0.61913848 0.81010854
-4.9260001 15.633 -1.006 -0.050447233 0.51678705 -0.63168997 0.81770778
-4.9749999 15.619 -1.006 -0.041027196 0.52005857 -0.62284631 0.8124541
-5.0879998 15.801 -1.022 -0.18398145 0.46680087 -0.67550951 0.84146619
-5.3730001 16.503 -1.077 0.47167093 -0.054893404 -0.35381845 0.59217757
-5.2379999 15.92 -1.033 0.44118118 -0.19919696 -0.53348178 0.72036314
-5.3210001 16.004 -1.041 0.44310015 -0.13296244 -0.66139758 0.8071329
-5.448 16.214001 -1.059 -0.3760151 0.15227956 -0.19206509 0.44884899
-5.3299999 15.784 -1.026 -0.22147031 0.47135374 -0.60778385 0.8003903
-5.3249998 15.607 -1.0140001 -0.047599178 0.51203823 -0.64811808 0.82734871
-5.3649998 15.564 -1.012 -0.022097608 0.50729877 -0.66787207 0.83898354
-5.401 15.509 -1.0089999 -0.0048339134 0.51004177 -0.66140431 0.8352375
-5.4679999 15.545 -1.013 -0.010396417 0.50638664 -0.67144811 0.84105772
-5.5240002 15.548 -1.0140001 -0.00590441 0.50171876 -0.68382043 0.84815502
-5.573 15.531 -1.0140001 -0.0069359597 0.50024933 -0.68725824 0.85007137
-5.6170001 15.5 -1.013 -0.0044014878 0.50015289 -0.68741894 0.8501277
-5.6490002 15.512 -1.015 -0.0036442187 0.49736279 -0.69419742 0.85398662
-5.7059999 15.516 -1.017 -0.015008144 0.49462667 -0.6997627 0.85705811
-5.789 15.59 -1.024 -0.0063520698 0.48871136 -0.71342564 0.86478627
-5.8049998 15.486 -1.017 -0.043149676 0.48536777 -0.71537203 0.86556393
-4.5619998 18.224001 -1.306 0.24320279 -0.18112022 -0.12433383 0.32773623
-4.6079998 18.165001 -1.302 0.34732503 -0.19389343 -0.22851357 0.4587459
-4.6490002 18.089001 -1.2970001 0.41685441 -0.18151917 -0.33774948 0.56638461
-4.6719999 17.941 -1.286 0.44162768 -0.16184905 -0.38154233 0.60564399
-4.691 17.785 -1.275 0.45471328 -0.14934132 -0.41200891 0.63152069
-4.7189999 17.666 -1.266 0.46841627 -0.11560655 -0.41402254 0.63576204
-4.7690001 17.629999 -1.2640001 0.47038153 -0.10879283 -0.41190442 0.63463366
-4.8130002 17.575001 -1.261 0.47232246 -0.10147768 -0.40942332 0.63325638
-4.8210001 17.492001 -1.255 0.47425276 -0.091089897 -0.4023273 0.62855411
-4.849 17.381001 -1.247 0.4761849 -0.082881212 -0.39940792 0.62701517
-4.8730001 17.256001 -1.237 0.47561669 -0.08120288 -0.39348981 0.62260693
-4.9000001 17.146999 -1.23 0.47693357 -0.085098103 -0.40402013 0.63082451
-4.9460001 17.104 -1.227 0.47428223 -0.084159732 -0.39036769 0.62001085
-5.013 17.135 -1.2309999 0.47536436 -0.090239465 -0.40329474 0.62988973
-4.98 16.823 -1.206 0.48033237 -0.086327717 -0.42355815 0.64619899
-5.0089998 16.823999 -1.207 0.48221067 -0.084058657 -0.43226841 0.65303063
-5.0209999 16.671 -1.196 0.4784652 -0.062927991 -0.38494584 0.6173104
-5.0440001 16.558001 -1.188 0.40197045 0.016770994 -0.19851595 0.44863135
-5.066 16.447001 -1.1799999 0.40874007 0.03009822 -0.20700976 0.45915943
-4.8660002 15.617 -1.1109999 -0.056112945 0.50622737 -0.66308957 0.83612353
-4.9130001 15.594 -1.1109999 -0.058464617 0.5024569 -0.67251396 0.84152007
-4.9559999 15.562 -1.109 -0.044567537 0.5054583 -0.66856152 0.83931452
-5.0170002 15.584 -1.112 -0.048944481 0.50208402 -0.67641151 0.84381068
-5.2119999 15.598 -1.118 -0.0534872 0.49067235 -0.70245683 0.8585254
-5.2639999 15.593 -1.119 -0.057058793 0.49111494 -0.70039165 0.85732031
-5.303 15.546 -1.117 -0.040935565 0.49223411 -0.70177853 0.85817438
-5.3330002 15.473 -1.112 -0.030642631 0.49705535 -0.69228929 0.85279977
-5.3520002 15.451 -1.1109999 -0.028514327 0.49500117 -0.69736701 0.85566348
-5.4330001 15.527 -1.119 -0.028095307 0.48953587 -0.70977306 0.86267751
-5.539 15.673 -1.133 -0.043140169 0.47466061 -0.73703349 0.87771416
-5.5120001 15.441 -1.114 -0.023030067 0.48847049 -0.71226692 0.86397797
-5.559 15.418 -1.114 -0.0084085576 0.48415032 -0.72221279 0.86951911
-5.6110001 15.412 -1.115 -0.0061447029 0.47821978 -0.73375195 0.87585604
-5.6739998 15.434 -1.118 -0.0089888945 0.47040299 -0.74776864 0.88346916
-5.7210002 15.41 -1.118 -0.0051551415 0.4645713 -0.75764942 0.88875514
-5.7930002 15.532 -1.1289999 -0.017732743 0.45789689 -0.7680108 0.89432913
-4.5700002 18.379999 -1.427 0.12974195 -0.15028197 -0.057083815 0.2065822
-4.6129999 18.306 -1.4220001 0.19876498 -0.16071132 -0.088326246 0.27043885
-4.6659999 18.274 -1.42 0.29447791 -0.17482126 -0.15905714 0.3775962
-4.6230001 17.989 -1.396 0.43505117 -0.17619842 -0.38409293 0.60650045
-4.6929998 18.028 -1.4 0.43557847 -0.16935298 -0.37399241 0.59856439
-4.6669998 17.701 -1.373 0.4619011 -0.12849803 -0.40464658 0.62737805
-4.7140002 17.652 -1.37 0.46819705 -0.11515263 -0.41168803 0.63399971
-4.7550001 17.587 -1.365 0.47191507 -0.10258535 -0.40900272 0.63285923
-4.8379998 17.67 -1.374 0.46860734 -0.1130221 -0.41118747 0.63359445
-4.8639998 17.549 -1.364 0.47259769 -0.096822403 -0.40327016 0.62876862
-4.8740001 17.377001 -1.35 0.47611624 -0.08244615 -0.39862096 0.62640458
-4.9169998 17.423 -1.355 0.47561446 -0.083902761 -0.39866555 0.62624514
-4.8889999 17.120001 -1.33 0.47635332 -0.084741421 -0.40059322 0.62814689
-4.9120002 16.997 -1.3200001 0.47577611 -0.099524878 -0.4192366 0.64189363
-4.9720001 17.004999 -1.322 0.47580326 -0.099433824 -0.41946098 0.64204621
-4.9369998 16.691 -1.295 0.44465098 -0.033649899 -0.27679986 0.52484757
-5.1160002 17.097 -1.3329999 0.47788721 -0.097010672 -0.42905673 0.64952052
-5.0110002 16.559999 -1.286 0.35794255 0.0074964613 -0.14818931 0.38747793
-5.0029998 16.440001 -1.276 0.3658838 0.030829087 -0.15504003 0.39857092
-5.0349998 16.360001 -1.27 0.36729169 0.023371901 -0.15680793 0.40004769
-4.8520002 15.596 -1.2029999 -0.0720587 0.4746758 -0.72976327 0.87353534
-4.9000001 15.577 -1.2029999 -0.07041017 0.47707662 -0.72563469 0.8712666
-4.9429998 15.543 -1.201 -0.049403466 0.48737016 -0.71064949 0.86312979
-5.006 15.571 -1.205 -0.048624706 0.48310167 -0.71970713 0.86817616
-5.4219999 16.504 -1.2920001 0.45883158 -0.081293143 -0.33382764 0.57321537
-5.2750001 15.975 -1.245 0.16802542 -0.18423808 -0.082464963 0.26263413
-5.2319999 15.679 -1.22 -0.072830789 0.44121408 -0.78404981 0.90261191
-5.2399998 15.542 -1.209 -0.048170649 0.47199494 -0.74066913 0.87959671
-5.2750001 15.484 -1.205 -0.047257133 0.47290105 -0.73900944 0.87863737
-5.3150001 15.445 -1.2029999 -0.021476064 0.48130035 -0.72712463 0.8722508
-5.7309999 16.476999 -1.299 0.46029788 -0.15237361 -0.43887678 0.65399134
-5.5190001 15.713 -1.2309999 -0.071140945 0.43522292 -0.79268128 0.90709627
-5.4699998 15.496 -1.212 -0.029515799 0.47811764 -0.73230743 0.87506676
-5.5079999 15.449 -1.209 -0.022710316 0.47427976 -0.74001253 0.87924719
-5.5430002 15.396 -1.206 -0.022190362 0.47153947 -0.7447468 0.88175374
-5.6350002 15.496 -1.216 -0.011106448 0.46041572 -0.76447725 0.89248616
-5.6490002 15.385 -1.2079999 -0.0165952 0.46551597 -0.75545585 0.88752127
-5.744 15.494 -1.22 -0.015255549 0.45010778 -0.77987856 0.90057778
-5.7779999 15.437 -1.216 -0.033426389 0.45267224 -0.77413833 0.89739603
-5.8249998 15.415 -1.216 -0.045204226 0.45780089 -0.76428974 0.89205599
-4.5380001 18.41 -1.5420001 0.11615196 -0.15541026 -0.055729866 0.20186491
-4.5510001 18.216 -1.525 0.28206536 -0.195024 -0.16212189 0.3793135
-4.5669999 18.037001 -1.5089999 0.434095 -0.1922532 -0.41870299 0.63301814
-4.6020002 17.938 -1.501 0.44599459 -0.17040612 -0.41970456 0.63568968
-4.6329999 17.825001 -1.492 0.44928464 -0.16128224 -0.41207352 0.63061339
-4.6669998 17.729 -1.484 0.45830554 -0.13595262 -0.40171012 0.6244182
-4.6989999 17.736 -1.485 0.45916653 -0.13374558 -0.4017671 0.62461078
-4.7550001 17.723 -1.4859999 0.46353853 -0.12608185 -0.40906158 0.63094848
-4.7620001 17.528999 -1.4680001 0.47277656 -0.09638676 -0.40297601 0.62864757
-4.369 15.873 -1.312 0.44834837 0.1807059 -0.32159919 0.5806005
-4.8470001 17.408001 -1.46 0.47565365 -0.084063008 -0.39871109 0.62632537
-4.947 17.552 -1.475 0.47288534 -0.094270408 -0.40130711 0.62733948
-5.1230001 17.75 -1.497 0.471297 -0.10721055 -0.41748881 0.6386798
-4.8920002 16.847 -1.411 0.47588739 -0.094249487 -0.41045791 0.63547421
-4.927 16.77 -1.406 0.46760854 -0.062321506 -0.34622887 0.58516335
-4.9400001 16.618999 -1.393 0.41416138 -0.0096815564 -0.21891668 0.46855938
-5.303 17.643 -1.492 0.47370571 -0.0969069 -0.41142407 0.63486832
-5.0489998 16.603001 -1.3940001 0.44688529 -0.022943821 -0.27796602 0.52678078
-5.066 16.475 -1.383 0.32977724 0.011303751 -0.1214543 0.35161334
-4.8400002 15.559 -1.2970001 -0.043399923 0.45110154 -0.77587771 0.89853346
-4.8600001 15.538 -1.295 -0.044594362 0.45021453 -0.77695107 0.89907438
-4.9120002 15.532 -1.296 -0.040327266 0.45331386 -0.77295816 0.89698613
-4.9689999 15.543 -1.299 -0.028552406 0.45776162 -0.76773345 0.89430171
-5.1659999 15.649 -1.314 0.090947174 -0.33617094 -0.17851821 0.39134517
-5.1999998 15.587 -1.309 -0.059398387 0.43540508 -0.79499316 0.90836114
-5.21 15.455 -1.298 -0.029911811 0.4426367 -0.7895171 0.90562642
-5.2259998 15.423 -1.296 -0.026386779 0.44592491 -0.78516054 0.90333956
-5.27 15.393 -1.294 -0.022761252 0.44146731 -0.79163218 0.9066934
-5.3210001 15.384 -1.295 -0.011763565 0.44207612 -0.79149133 0.9066577
-5.3759999 15.386 -1.2970001 -0.021539751 0.44214246 -0.79074699 0.90622002
-5.4349999 15.399 -1.3 -0.019037716 0.44229695 -0.79072702 0.90622199
-5.4920001 15.408 -1.302 -0.015799142 0.44934916 -0.78088892 0.90108371
-5.5250001 15.348 -1.298 -0.0070237815 0.43868148 -0.79610002 0.90899175
-5.599 15.478 -1.312 -0.04060198 0.46030021 -0.76145649 0.89069682
-5.6479998 15.462 -1.312 -0.040921617 0.45090237 -0.77588236 0.89832121
-5.7140002 15.489 -1.316 -0.030761633 0.43692416 -0.7970202 0.90944499
-5.757 15.458 -1.3150001 -0.046401255 0.44300139 -0.78637671 0.90376526
-5.809 15.447 -1.316 -0.048803277 0.44279891 -0.78617072 0.90361333
-4.5079999 18.33 -1.654 0.19747816 -0.18611376 -0.10170782 0.28979379
-4.5749998 18.356001 -1.658 0.28075281 -0.20258759 -0.1672217 0.38448274
-4.6090002 18.247 -1.648 0.40238881 -0.20816873 -0.34262115 0.56801432
-4.6129999 18.024 -1.627 0.44195667 -0.17516389 -0.41252708 0.62943363
-4.6539998 17.952 -1.6210001 0.45154285 -0.16456051 -0.43835849 0.65048385
-4.6789999 17.816 -1.609 0.45426512 -0.14786845 -0.40721107 0.62772822
-4.7179999 17.74 -1.603 0.45845723 -0.13841024 -0.40761429 0.62887985
-4.7290001 17.669001 -1.596 0.46521693 -0.12275846 -0.41060317 0.63252777
-4.2140002 15.561 -1.383 0.31264582 0.41117924 -0.62052929 0.8073861
-4.276 15.594 -1.388 0.17428669 0.45119178 -0.72181374 0.86888719
-4.3400002 15.634 -1.393 0.1515201 0.47939631 -0.68017888 0.84582651
-4.414 15.708 -1.402 0.15817808 0.44258073 -0.74786937 0.88329303
-4.4520001 15.656 -1.398 0.10135864 0.44509962 -0.77141511 0.89636403
-5.1139998 17.552999 -1.596 0.4731665 -0.091468267 -0.3992843 0.62584418
-4.612 15.746 -1.411 0.21926044 -0.21178034 -0.12335458 0.32885012
-4.9190001 16.596001 -1.5 0.39613685 0.003806062 -0.19215474 0.44029799
-4.7080002 15.708 -1.41 0.17832799 -0.26157323 -0.13869578 0.34562689
-5.1869998 17.101999 -1.5549999 0.47923177 -0.097854562 -0.44133744 0.65879995
-5.0830002 16.576 -1.503 0.44469362 -0.018180929 -0.27233821 0.52177685
-5.0869999 16.403999 -1.487 0.25667107 -0.0033346936 -0.069987357 0.26606277
-4.8860002 15.586 -1.404 -0.059548352 0.42333823 -0.81059223 0.91641748
-4.8959999 15.535 -1.4 -0.042651299 0.42398822 -0.81259346 0.9175474
-4.948 15.527 -1.4 -0.039985165 0.42840758 -0.80741632 0.91490602
-5.0190001 15.582 -1.408 -0.037301417 0.42960316 -0.80634731 0.91441029
-5.2199998 16.028999 -1.456 0.14214624 -0.14583358 -0.055158347 0.21098681
-5.2540002 15.964 -1.451 0.1430587 -0.15183246 -0.057935625 0.21650733
-5.2210002 15.698 -1.425 0.092146575 -0.28946924 -0.13125739 0.33092588
-5.2690001 15.678 -1.424 0.092127249 -0.28951684 -0.13126108 0.33096358
-5.3340001 15.79 -1.437 0.13229176 -0.23788333 -0.10215205 0.29073119
-5.2750001 15.457 -1.404 -0.035326779 0.42714757 -0.80930716 0.91579533
-5.3270001 15.45 -1.405 -0.039600234 0.41732806 -0.82068491 0.9215501
-5.3850002 15.459 -1.408 -0.040582206 0.42100382 -0.81615961 0.91924298
-5.448 15.485 -1.4119999 -0.04774937 0.440961 -0.78924698 0.90533829
-5.474 15.404 -1.406 -0.025193047 0.42297864 -0.81529468 0.91883135
-5.5669999 15.511 -1.418 -0.038026437 0.44189155 -0.78945339 0.90551138
-5.5890002 15.42 -1.411 -0.049243391 0.44337088 -0.78534722 0.90320146
-5.6370001 15.475 -1.4170001 -0.056863252 0.44778281 -0.77759808 0.89911157
-5.737 15.597 -1.432 -0.043718606 0.4175472 -0.81994474 0.92117661
-5.7470002 15.475 -1.421 -0.062495083 0.44057024 -0.78664494 0.90377986
-5.7820001 15.419 -1.4170001 -0.06490235 0.439843 -0.78693378 0.90384674
-5.8439999 15.438 -1.421 -0.082301706 0.43074626 -0.79484075 0.90779281
-5.9120002 15.47 -1.426 -0.11636595 0.43863219 -0.77171332 0.89525455
-4.5939999 18.083 -1.747 0.43705848 -0.18446171 -0.41313592 0.62906879
-4.6069999 17.899 -1.729 0.45519784 -0.15388185 -0.42853767 0.64383942
-4.6550002 17.854 -1.726 0.46014351 -0.14310445 -0.43025026 0.6460079
-4.6859999 17.740999 -1.715 0.46110833 -0.13756177 -0.42015189 0.63880497
-4.7189999 17.642 -1.706 0.46751064 -0.11794221 -0.41332746 0.63507175
-4.7800002 17.648001 -1.7079999 0.46871445 -0.11483499 -0.41453931 0.63617855
-4.8169999 17.566 -1.701 0.47117025 -0.10431089 -0.4080928 0.63199836
-4.8319998 17.514 -1.696 0.47405991 -0.09196458 -0.40304801 0.62899762
-4.8790002 17.469999 -1.693 0.47354236 -0.092401028 -0.40077156 0.62721461
-4.9089999 17.365 -1.683 0.47533125 -0.079931647 -0.39198941 0.62127656
-4.4899998 15.684 -1.503 -0.019305898 -0.28893304 -0.12078944 0.31375962
-5.1440001 17.771 -1.7309999 0.47566855 -0.10141589 -0.43406337 0.65188706
-5.2470002 17.917 -1.748 0.47406787 -0.10759798 -0.44051173 0.65602458
-4.651 15.687 -1.508 0.10729612 -0.20912696 -0.076565057 0.24720185
-4.7179999 15.823 -1.523 0.1763283 -0.15433758 -0.070939422 0.24483497
-4.717 15.638 -1.505 0.072598174 -0.27608487 -0.1156446 0.30800492
-4.7589998 15.599 -1.502 0.050163344 -0.3107492 -0.14311698 0.34578013
-4.8119998 15.597 -1.503 0.045956329 -0.32004562 -0.15190464 0.35723409
-4.8439999 15.529 -1.498 0.031619512 -0.31232217 -0.14253157 0.34476104
-4.8959999 15.523 -1.499 0.020409683 -0.31297961 -0.14242223 0.34446609
-4.9390001 15.49 -1.497 0.022761067 -0.31518912 -0.14467871 0.34755456
-5.0139999 15.556 -1.506 -0.043790821 0.41610157 -0.82188356 0.92225307
-5.1040001 15.751 -1.528 0.10561929 -0.23430981 -0.091971934 0.27297503
-5.171 15.79 -1.534 0.10970429 -0.23245169 -0.091820121 0.27294645
-5.164 15.601 -1.515 0.07992316 -0.31411761 -0.15166894 0.35785618
-5.1880002 15.51 -1.507 0.060038004 -0.31822857 -0.15182966 0.35766777
-5.2399998 15.503 -1.508 0.064117841 -0.32392302 -0.15845478 0.36625829
-5.2859998 15.481 -1.507 0.054473728 -0.3326247 -0.16622022 0.37581342
-5.3119998 15.396 -1.5 0.048726 -0.31093755 -0.14261049 0.34553456
-5.4109998 15.606 -1.524 0.087660849 -0.3171263 -0.15651885 0.364351
-5.415 15.459 -1.5089999 -0.044508111 0.41826043 -0.81886995 0.92058176
-5.5279999 15.626 -1.53 0.080297582 -0.31162897 -0.14916193 0.35469648
-5.5159998 15.436 -1.511 -0.043181129 0.41795909 -0.81929463 0.9207595
-5.5500002 15.378 -1.506 0.044648513 -0.30244601 -0.13387993 0.33375278
-5.6139998 15.403 -1.511 0.06938757 -0.33616215 -0.17260814 0.38420463
-5.6719999 15.413 -1.5140001 -0.064754844 0.43539286 -0.79313934 0.90709984
-5.7160001 15.384 -1.513 0.09754885 -0.31911898 -0.16068053 0.37036595
-5.7719998 15.461 -1.522 -0.081760727 0.43166721 -0.79382324 0.90729088
-5.8119998 15.419 -1.52 0.10228246 -0.35092548 -0.19927964 0.4163205
-4.717 17.65 -1.826 0.4710694 -0.1198478 -0.44151315 0.65666103
-4.7620001 17.599001 -1.822 0.47174942 -0.11851814 -0.44278866 0.65776581
-4.8119998 17.565001 -1.8200001 0.47148862 -0.11535805 -0.43186674 0.64970601
-4.9089999 17.483999 -1.814 0.4733876 -0.092063822 -0.39988959 0.62648481
-4.46 15.614 -1.601 -0.028021807 -0.28285557 -0.1161319 0.30704904
-4.5440001 15.72 -1.615 0.052152444 -0.19942543 -0.061245471 0.21503811
-5.079 17.158001 -1.785 0.48088846 -0.088938735 -0.43501949 0.65452713
-4.6490002 15.359 -1.58 -0.036440726 -0.21643117 -0.069516927 0.23022377
-4.7150002 15.489 -1.596 -0.00066882954 -0.23922129 -0.082140684 0.25293154
-4.7709999 15.498 -1.599 0.023780247 -0.26127437 -0.098208398 0.28013334
-4.8330002 15.523 -1.603 0.021937374 -0.28272882 -0.11506736 0.30603486
-4.8569999 15.43 -1.594 -0.0043977438 -0.27806211 -0.11065933 0.29930481
-4.9120002 15.438 -1.597 0.0075710118 -0.2821587 -0.11400875 0.30441558
-4.9640002 15.431 -1.598 0.0089538954 -0.28808299 -0.118992 0.31181899
-4.9860001 15.335 -1.589 0.0049737198 -0.22524162 -0.07295087 0.23681292
-5.1290002 15.606 -1.622 0.075491853 -0.29403788 -0.13153461 0.33084536
-5.2220001 15.642 -1.6289999 0.083166867 -0.29495922 -0.13401726 0.3344821
-5.2049999 15.428 -1.6059999 0.053113956 -0.28470573 -0.1193634 0.31325081
-5.2579999 15.424 -1.608 0.053446315 -0.30107141 -0.13390791 0.33381405
-5.3060002 15.408 -1.608 0.0637367 -0.29222888 -0.12741753 0.32510817
-5.3379998 15.344 -1.602 0.05513142 -0.25920728 -0.099230409 0.28297448
-5.4190001 15.421 -1.613 0.063678525 -0.29623708 -0.1309928 0.33010677
-5.4860001 15.532 -1.627 -0.073330052 0.42262009 -0.8080318 0.91482264
-5.5609999 15.588 -1.636 0.083244197 -0.32273048 -0.16121867 0.3702378
-5.5609999 15.436 -1.62 0.064665288 -0.32329443 -0.15761656 0.36543652
-5.5939999 15.375 -1.615 0.090751007 -0.27726406 -0.11983144 0.31538972
-5.6989999 15.512 -1.633 0.088455044 -0.34860885 -0.19233835 0.40785596
-5.7080002 15.388 -1.6210001 0.10967091 -0.30946776 -0.15436116 0.36280212
-5.8200002 15.538 -1.64 0.11897709 -0.34311259 -0.19558075 0.41247258
-5.8470001 15.462 -1.6339999 -0.09376853 0.43977532 -0.77880466 0.89929503
-5.8779998 15.471 -1.636 -0.097953767 0.43973821 -0.77738571 0.89849496
-5.9320002 15.467 -1.638 -0.10363799 0.44143394 -0.77278781 0.89599425
-4.7420001 15.407 -1.687 -0.033621136 -0.21074629 -0.06598711 0.22338012
-4.9439998 15.291 -1.681 -0.0033861424 -0.19607782 -0.056295544 0.20402737
-5.007 15.321 -1.687 0.0097915744 -0.20645618 -0.061965734 0.21577716
-5.1589999 15.297 -1.6900001 0.046113621 -0.20915419 -0.065551668 0.22398429
-5.224 15.252 -1.687 0.054558013 -0.19766143 -0.060093969 0.21367709
-5.2659998 15.219 -1.6849999 0.04572688 -0.19420475 -0.057270169 0.2075724
-5.3109999 15.195 -1.684 0.045875236 -0.18877463 -0.054458529 0.20175759
-5.4109998 15.326 -1.7029999 0.08073239 -0.22540143 -0.080209374 0.25250161
-5.4679999 15.333 -1.706 0.081175171 -0.23858729 -0.088855535 0.26722389
-5.4879999 15.239 -1.696 0.067031823 -0.21133815 -0.069327563 0.23230021
-5.4809999 15.145 -1.686 0.028411966 -0.19564688 -0.05656606 0.20563234
-5.585 15.282 -1.705 0.08995042 -0.23015277 -0.084985107 0.26131177
-5.7690001 15.634 -1.751 0.13280796 -0.31844601 -0.17236686 0.38568917
-5.8319998 15.655 -1.756 0.18967113 -0.30169541 -0.18241957 0.40034005
-5.7490001 15.283 -1.712 0.12537201 -0.23278157 -0.095836133 0.28122938
-5.888 15.505 -1.742 -0.099104047 0.43769667 -0.77997714 0.89986908
-5.5809999 15.273 -1.7970001 0.067905277 -0.2090365 -0.068147033 0.23011172
-5.7600002 15.313 -1.809 0.12989186 -0.2330226 -0.097442806 0.28401855
-5.8179998 15.321 -1.813 0.14438914 -0.24381191 -0.10989633 0.30392379
