# .PCD v0.7 - Point Cloud Data file format
VERSION 0.7
FIELDS x y z normal_x normal_y normal_z curvature
SIZE 4 4 4 4 4 4 4
TYPE F F F F F F F
COUNT 1 1 1 1 1 1 1
WIDTH 159
HEIGHT 1
VIEWPOINT 0 0 0 1 0 0 0
POINTS 159
DATA ascii
27.256001 15.969 -0.043000001 0.11770174 0.51633751 -0.72287565 0.89610678
27.153999 16.254999 -0.044 0.11054082 0.52658546 -0.70803535 0.88928372
26.976 16.264 -0.041999999 0.085800558 0.54957998 -0.66357964 0.86587399
26.757 16.247 -0.041000001 0.096025012 0.53019291 -0.70562744 0.88782626
27.056 16.486 -0.044 0.13270235 0.48431748 -0.77317351 0.92193848
26.916 16.517 -0.043000001 0.13313454 0.53464603 -0.68284911 0.87741333
27.030001 15.951 -0.234 0.044459932 0.56310606 -0.62673163 0.84371656
26.955 15.964 -0.234 0.049224928 0.56263268 -0.62756544 0.84428489
26.877001 16.032 -0.233 0.04438461 0.570647 -0.59760976 0.82749349
26.84 16.124001 -0.233 0.060475353 0.56822044 -0.60634398 0.83317751
26.612 16.101 -0.23 0.06313324 0.56869078 -0.60267496 0.83103079
26.511 16.153999 -0.23 0.07715106 0.56926614 -0.5960083 0.82779354
26.408001 16.205 -0.229 0.078797922 0.56592172 -0.61083311 0.83641714
26.556 16.410999 -0.23199999 0.08095558 0.56567442 -0.61601233 0.84024554
26.386999 16.364 -0.23 0.082424 0.5636192 -0.62178236 0.84325182
26.122 16.313 -0.226 0.09266974 0.53881073 -0.68766117 0.87851155
25.948999 16.318001 -0.22400001 0.096424192 0.55138433 -0.65332276 0.8603214
25.965 16.443001 -0.22499999 0.087946609 0.535703 -0.69761717 0.88395816
25.771999 16.434 -0.223 0.094770625 0.53025061 -0.70680672 0.88866353
25.649 16.469 -0.222 0.095286727 0.51657677 -0.73317242 0.90192735
27.028999 16.007 -0.454 0.0012297221 0.5790484 -0.54031938 0.79198712
26.837 16.007999 -0.44999999 0.040416747 0.5778749 -0.55328476 0.8010599
26.549 15.949 -0.44400001 0.066228569 0.57530296 -0.55908954 0.80494773
26.577 16.08 -0.44600001 0.056787942 0.57915294 -0.53807235 0.7925685
26.482 16.136999 -0.44499999 0.062106304 0.57785559 -0.5507552 0.80069071
26.268 16.118999 -0.44100001 0.052672446 0.5768975 -0.56069994 0.80620688
26.202999 16.193001 -0.44100001 0.062580757 0.57628816 -0.56375062 0.80860317
26.023001 16.195999 -0.43799999 0.075650588 0.57618779 -0.5535332 0.80256736
25.834999 16.135 -0.43399999 0.079842791 0.56087983 -0.62614721 0.84440595
25.718 16.174 -0.43200001 0.087043419 0.55916923 -0.62926817 0.84630096
25.614 16.222 -0.43099999 0.093655393 0.56144047 -0.61856955 0.84060395
25.489 16.254999 -0.42899999 0.094124079 0.56536603 -0.60221946 0.83136415
25.329 16.264999 -0.426 0.11026476 0.55288416 -0.6377821 0.85123748
25.311001 16.365999 -0.42699999 0.10966881 0.55376738 -0.63712889 0.85124546
25.107 16.347 -0.42300001 0.15532339 0.5273186 -0.67944252 0.87397504
25.277 16.514 -0.428 0.12330315 0.55733389 -0.61772394 0.84107524
25.011 16.452999 -0.42300001 0.17430942 0.51070464 -0.7033639 0.88652343
24.819 16.438 -0.419 0.21898228 0.48968911 -0.70821851 0.88843805
27.047001 15.958 -0.61400002 -0.028871104 0.57764322 -0.52467561 0.78089029
26.93 16.003 -0.61199999 0.034867417 0.5809769 -0.51867402 0.77959776
26.790001 16.035 -0.60900003 0.041928612 0.58072746 -0.52324861 0.78280997
26.870001 16.197001 -0.61299998 0.042725272 0.58195847 -0.51770878 0.78007913
26.554001 16.120001 -0.60500002 0.045030184 0.58088702 -0.52649277 0.785272
26.388 16.077 -0.60100001 0.04682409 0.57942605 -0.53959459 0.79315156
26.136999 16.035999 -0.59500003 0.080369979 0.57785112 -0.519032 0.78087479
25.989 16.058001 -0.59200001 0.060880609 0.57880259 -0.53137481 0.78808504
25.871 16.097 -0.58999997 0.066284463 0.57380986 -0.57073957 0.81203145
25.740999 16.129 -0.58700001 0.083622247 0.56924045 -0.58788359 0.82257795
25.500999 16.09 -0.58200002 0.089257851 0.56105143 -0.61796021 0.83941674
25.413 16.146 -0.57999998 0.090403318 0.56659538 -0.59472007 0.82637459
25.32 16.143 -0.57800001 0.091632277 0.55663204 -0.63285744 0.84778786
25.281 16.23 -0.579 0.09601891 0.5623948 -0.61051625 0.83560616
25.049 16.191999 -0.57300001 0.15317425 0.5168615 -0.70169616 0.88486481
25.059999 16.311001 -0.57499999 0.14244211 0.53458995 -0.66916418 0.86824936
24.847 16.395 -0.57200003 0.18716525 0.52507633 -0.65798843 0.86237162
24.833 16.499001 -0.57300001 0.19867001 0.52647108 -0.64359915 0.85490435
24.781 16.52 -0.57200003 0.26809692 0.47758317 -0.67996538 0.87310624
26.613001 15.821 -0.787 0.051862471 0.57984263 -0.49057356 0.76129466
26.485001 15.857 -0.78399998 0.034867909 0.57815588 -0.54162258 0.79299116
26.403999 15.922 -0.78200001 0.047553435 0.57684642 -0.55427647 0.80139595
26.243999 15.938 -0.778 0.06063297 0.57518232 -0.56002098 0.80506802
26.221001 16.037001 -0.77899998 0.064782128 0.57693762 -0.54814655 0.79844749
26.107 16.024 -0.77600002 0.060537986 0.5760693 -0.55588382 0.80282468
25.878 15.996 -0.76899999 0.05013052 0.57535827 -0.56391621 0.8071875
25.816 16.07 -0.76899999 0.068757482 0.57568526 -0.55424041 0.80207455
25.606001 16.051001 -0.76300001 0.077164277 0.57229728 -0.57033432 0.81164014
25.481001 16.084999 -0.75999999 0.087921485 0.56735414 -0.59030789 0.82345873
25.327999 16.099001 -0.75599998 0.069649771 0.56109834 -0.62459844 0.84249967
25.117001 16.077 -0.75 0.069802433 0.54126865 -0.68145931 0.87305838
24.955 16.028999 -0.745 0.26085576 0.41347244 -0.7814194 0.92174911
24.979 16.155001 -0.74800003 0.24593569 0.44658032 -0.75245583 0.90890491
24.955 16.25 -0.74900001 0.17498881 0.5172261 -0.68620408 0.87693781
24.834999 16.284 -0.74599999 0.39265379 0.30524808 -0.74797767 0.89823383
24.687 16.41 -0.74400002 0.34115624 0.4253279 -0.67253149 0.8657887
27.056999 16.035999 -1.008 -0.043601863 0.57572448 -0.45594472 0.73569381
26.804001 16.114 -1.002 0.030056415 0.58213478 -0.48311508 0.75708944
26.799 16.341 -1.006 -0.019052817 0.58166802 -0.49001491 0.76079911
26.174 16.072001 -0.98000002 0.044692453 0.57644373 -0.56229502 0.80651128
25.969999 16.059999 -0.97299999 0.044315755 0.57405537 -0.57573509 0.81423235
26.091 16.247999 -0.98100001 0.057213172 0.575625 -0.56986129 0.81200945
24.712 15.442 -0.91900003 0.5028103 0.011400796 -0.62732661 0.80404407
25.975 16.346001 -0.97899997 0.073100939 0.5765124 -0.5581032 0.80572295
25.058001 15.878 -0.94 0.18159659 0.46592352 -0.76841849 0.91680372
25.093 16.011 -0.94300002 0.11718526 0.50324363 -0.742342 0.90446568
25.066999 16.106001 -0.94499999 0.1180954 0.50323057 -0.74297446 0.90509593
25.149 16.27 -0.95099998 0.056535274 0.56112498 -0.63033253 0.84579939
24.931 16.24 -0.94300002 0.07953573 0.54257977 -0.67655957 0.87089127
24.853001 16.245001 -0.94099998 0.46734175 0.085558727 -0.72741944 0.86883116
24.777 16.306999 -0.93900001 0.48886424 0.0029753596 -0.66497648 0.82534283
27.073 16.073 -1.197 -0.065117925 0.5682528 -0.41866881 0.7088266
27.15 16.233 -1.2029999 -0.097495183 0.56242537 -0.42146829 0.70955139
26.728001 16.039 -1.183 -0.018602323 0.57969141 -0.49626812 0.76332843
26.65 16.106001 -1.181 -0.0013201777 0.58101428 -0.51203912 0.77444392
26.716999 16.261999 -1.188 -0.0082773529 0.58144522 -0.51354921 0.77580911
26.493999 16.24 -1.179 0.018577294 0.58098626 -0.53608054 0.79074174
26.177999 16.16 -1.165 0.021772154 0.57945567 -0.54463148 0.79552901
26.149 16.256001 -1.166 0.038516428 0.57842028 -0.55717063 0.80404764
24.705999 15.468 -1.0930001 0.50655746 0.0065211654 -0.61038572 0.79322994
25.503 16.021999 -1.136 0.060954362 0.56406963 -0.61494052 0.836685
25.086 15.871 -1.117 0.054957032 0.52931678 -0.7079736 0.88567668
24.84 15.825 -1.1059999 0.4964368 -0.018447436 -0.63098818 0.80307901
24.826 15.926 -1.108 0.49651414 -0.017845541 -0.63088858 0.80303496
24.907 16.087999 -1.115 0.47101557 -0.072723307 -0.66172588 0.81549096
24.893 16.190001 -1.117 0.47145951 -0.1009167 -0.62892306 0.79246604
25.121 16.451 -1.132 0.11113957 0.56272411 -0.60182983 0.83139014
24.757 16.323999 -1.115 0.49509928 -0.024378344 -0.63010418 0.80171621
25.037001 16.563999 -1.132 0.10208784 0.56816506 -0.58547169 0.82219863
27.466999 16.354 -1.402 -0.16833419 0.54427093 -0.4689458 0.73788714
27.131001 16.268999 -1.385 -0.10078767 0.55897862 -0.40470222 0.69742322
26.608 16.069 -1.357 -0.012365943 0.58024842 -0.50021851 0.76619822
26.393999 16.052999 -1.348 0.019318648 0.58093679 -0.52018988 0.78003734
26.386999 16.105 -1.349 0.020294473 0.58117908 -0.52099627 0.78078043
26.32 16.177999 -1.348 0.014525056 0.58131266 -0.52478617 0.78328538
26.493 16.399 -1.3609999 -0.016213702 0.58115697 -0.52465045 0.78311199
24.700001 15.395 -1.258 0.51726973 0.01453853 -0.55882472 0.76161963
24.656 15.475 -1.258 0.51658279 0.067278616 -0.58616799 0.78420478
25.568001 16.160999 -1.3150001 0.067105979 0.5760262 -0.55327064 0.80150968
25.774 16.406 -1.331 0.069775328 0.58040339 -0.52339756 0.78465384
25.438999 16.247999 -1.312 0.065572232 0.57141775 -0.58557308 0.82080066
25.166 16.184999 -1.299 -0.036202021 0.54249674 -0.67442966 0.86629593
24.882 16.113001 -1.285 0.47804928 -0.11588985 -0.57724553 0.75840223
24.818001 16.181999 -1.284 0.47921085 -0.11829031 -0.56416416 0.74961114
25.113001 16.487 -1.3049999 0.069967076 0.56606162 -0.61167532 0.83634192
25.038 16.608 -1.3049999 0.132489 0.56063032 -0.59548646 0.82853115
27.059 16.004 -1.575 -0.105243 0.5632214 -0.46256596 0.73638421
26.921 16.037001 -1.569 -0.085093677 0.56900144 -0.47678003 0.74721003
26.773001 16.063 -1.562 -0.057752822 0.57472664 -0.50116253 0.76472872
26.618999 16.084999 -1.556 -0.024406139 0.57805324 -0.52901518 0.7839632
26.462999 16.104 -1.549 -0.001489507 0.57893199 -0.54131246 0.79258037
26.349001 16.091999 -1.543 0.0065978374 0.57920939 -0.5405848 0.79231244
26.205999 16.118 -1.5369999 0.0068454072 0.57975495 -0.53631598 0.78980851
26.086 16.157 -1.5319999 0.028900687 0.58025032 -0.53356898 0.78881019
24.691 15.402 -1.442 0.51399606 0.038003322 -0.59243596 0.78524935
24.702 15.517 -1.446 0.51168269 0.056566529 -0.60804451 0.79670388
24.705 15.628 -1.45 0.49410477 -0.069354981 -0.58880633 0.77177882
24.725 15.749 -1.455 0.49200785 -0.077709824 -0.58480936 0.76818782
24.783001 15.896 -1.462 0.49272847 -0.077445105 -0.58009434 0.76504153
24.862 16.000999 -1.469 0.49337155 -0.073125027 -0.58287287 0.76713985
24.833 16.093 -1.47 0.50292361 -0.060095146 -0.54603773 0.74478239
24.815001 16.191999 -1.472 0.47971576 -0.12942728 -0.50024652 0.70507109
24.726 16.357 -1.473 0.50538307 -0.058250479 -0.52265048 0.72936183
26.187 15.59 -1.682 0.0094603859 0.56320035 -0.61455542 0.83364409
26.134001 15.67 -1.682 0.033944983 0.56788975 -0.59719205 0.82479656
26.097 15.759 -1.683 0.030325562 0.5718382 -0.57924569 0.81452078
26.024 15.827 -1.681 0.016633976 0.56908453 -0.59472072 0.82330227
26.007999 15.929 -1.684 0.028042989 0.56992829 -0.59432578 0.82391006
25.944 16.002001 -1.683 0.017759977 0.56853676 -0.60300934 0.82895702
25.865 16.01 -1.679 0.033951133 0.57150662 -0.58860785 0.82111615
24.768 15.437 -1.603 0.51492149 0.023289643 -0.58053684 0.7763437
24.673 15.486 -1.599 0.51524895 0.036165275 -0.5854131 0.78070349
24.754999 15.646 -1.609 0.48489758 -0.070808619 -0.62456942 0.79386806
25.200001 16.039 -1.645 0.13854302 -0.2934866 -0.18027201 0.37124997
24.976999 16.007 -1.632 0.37558943 -0.24929777 -0.35305133 0.57259238
24.871 16.049999 -1.628 0.47555193 -0.13894962 -0.49248415 0.69856805
24.822001 16.073999 -1.627 0.49631333 -0.07709334 -0.55691826 0.7499522
24.874001 16.218 -1.6339999 0.47395274 -0.13086459 -0.5604412 0.74555421
24.877001 16.332001 -1.638 0.46632037 -0.15506668 -0.5098635 0.70813924
24.726 16.344 -1.631 0.49922308 -0.070070297 -0.55059087 0.7465145
24.700001 16.438999 -1.633 0.50054008 -0.0712035 -0.53411812 0.7354539
