# .PCD v0.7 - Point Cloud Data file format
VERSION 0.7
FIELDS x y z normal_x normal_y normal_z curvature
SIZE 4 4 4 4 4 4 4
TYPE F F F F F F F
COUNT 1 1 1 1 1 1 1
WIDTH 569
HEIGHT 1
VIEWPOINT 0 0 0 1 0 0 0
POINTS 569
DATA ascii
-26.875 32.466 1.6339999 0.0014607721 0.38274047 -0.17949277 0.42274112
-27.044001 32.460999 1.638 0.010649567 0.38409472 -0.18127835 0.42485765
-27.193001 32.431999 1.64 -0.021027628 0.3831293 -0.18087646 0.42420104
-27.559 32.245998 1.643 0.17797747 -0.20317805 -0.078644246 0.28132227
-27.628 32.223999 1.6440001 0.22370717 -0.21387666 -0.10698169 0.32746482
-27.701 29.855 1.586 0.23453605 -0.17495906 -0.099645674 0.30910695
-27.636999 29.599001 1.5779999 0.30254617 -0.17802611 -0.15154526 0.3823525
-27.958 29.848 1.592 0.23346011 -0.13545349 -0.082225114 0.28215641
-28.167999 29.884001 1.598 0.16691118 -0.12018921 -0.045631856 0.21068236
-28.290001 29.823999 1.599 0.15337071 -0.13575126 -0.044950128 0.2096938
-28.058001 29.211 1.579 0.35175538 -0.16482911 -0.18956399 0.43224412
-28.122 28.731001 1.569 0.4111239 -0.14343336 -0.74126482 0.8596915
-28.159 28.677999 1.568 0.42295587 -0.13837157 -0.72397327 0.84980917
-28.308001 28.649 1.571 0.41997889 -0.12363488 -0.74103093 0.86069429
-28.306 28.290001 1.562 -0.2812171 0.13669185 -0.10919279 0.33119598
-27.223 32.729 1.378 -0.28861538 0.33703065 -0.2691896 0.51899087
-27.309999 32.625 1.378 -0.13611963 0.4354541 -0.29647356 0.54410052
-27.228001 32.32 1.37 -0.23905277 0.42074522 -0.3753525 0.61242324
-27.530001 32.471001 1.378 -0.26370114 0.41969496 -0.56149083 0.74896866
-27.493999 32.223 1.373 0.25979796 -0.38580939 -0.31454355 0.56149936
-27.41 29.773001 1.321 0.35154825 -0.17769825 -0.20246544 0.44289401
-27.466 29.645 1.319 0.31152335 -0.25243479 -0.21288025 0.4539693
-27.931999 29.959999 1.334 0.45668799 -0.08296854 -0.32371622 0.56589741
-28.215 30.073 1.342 0.46214435 -0.082359426 -0.33167633 0.5747779
-27.931 29.583 1.327 0.35451218 -0.1799982 -0.20287997 0.44636142
-27.951 29.511999 1.326 0.37404257 -0.1878127 -0.23417741 0.47960454
-27.950001 29.325001 1.322 0.42501897 -0.18366702 -0.32375354 0.56496996
-28.243999 29.448 1.33 0.41989425 -0.20269971 -0.32454216 0.56808972
-28.389999 29.415001 1.332 0.44112822 -0.1743158 -0.34320599 0.58546603
-28.034 28.683001 1.311 0.45506755 -0.18493806 -0.57033902 0.75271189
-28.135 28.606001 1.311 0.47132713 -0.14582224 -0.56860071 0.75280821
-28.384001 28.587999 1.316 0.45822707 -0.13022883 -0.65221059 0.80765724
-28.5 28.525 1.317 -0.31980491 0.2159626 -0.18028769 0.42593271
-28.566 28.412001 1.316 -0.27739656 0.26005709 -0.17276949 0.41764557
-28.702 28.368 1.317 -0.19545646 0.27525955 -0.12797415 0.361038
-26.98 33.046001 1.1799999 -0.32249469 0.33959052 -0.31900638 0.56664771
-27.018 32.880001 1.178 -0.35385942 0.3097851 -0.3251287 0.57174468
-27.087 32.754002 1.176 -0.34993976 0.32740107 -0.35300824 0.5952009
-27.254999 32.747002 1.179 0.4251655 -0.24794075 -0.58487779 0.76440978
-27.062 32.000999 1.163 0.39659616 -0.11567542 -0.77984524 0.88251227
-27.351 32.138 1.169 0.42123926 -0.25738424 -0.57785714 0.7600053
-27.617001 32.243999 1.175 0.34725922 -0.3189235 -0.33261502 0.57700425
-27.132 30.018999 1.13 0.35409871 -0.29203138 -0.31781077 0.55827582
-26.995001 29.679001 1.122 0.40011171 -0.28109133 -0.55926692 0.74288708
-27.339001 29.681 1.127 0.39817965 -0.20814788 -0.29872996 0.5395481
-27.319 29.566 1.125 0.34886527 -0.26568431 -0.27689332 0.5186184
-27.465 29.537001 1.127 0.35409445 -0.25327995 -0.26927763 0.51190239
-27.562 29.455 1.127 0.33123249 -0.25466424 -0.2370545 0.48037869
-28.028 29.764 1.1390001 0.45394927 -0.12089252 -0.33864772 0.57910901
-28.228001 29.789 1.143 0.47691453 -0.089388676 -0.38731828 0.62084883
-28.142 29.511999 1.137 0.45697111 -0.17692073 -0.41671175 0.6432513
-28.091999 29.275 1.132 0.43408188 -0.21924858 -0.39708817 0.62783438
-28.311001 29.410999 1.138 0.45061541 -0.20001428 -0.42359269 0.64999288
-28.198 29.108999 1.131 0.45023775 -0.1989342 -0.42340839 0.64927924
-28.382999 28.934999 1.131 0.45672423 -0.20021592 -0.52030945 0.72069782
-28.51 28.882 1.133 0.44859514 -0.21678869 -0.53858018 0.73369175
-28.42 28.611 1.127 0.42152616 -0.21806221 -0.65315717 0.80737209
-28.445999 28.458 1.125 -0.37049156 0.27523223 -0.30194473 0.55153191
-28.521 28.443001 1.126 -0.29219076 0.31885582 -0.2424905 0.49582872
-28.785999 28.349001 1.128 -0.223886 0.39981043 -0.28964627 0.5420962
-27.132999 36.513 0.89999998 0.27051315 -0.27574924 -0.18384743 0.42780238
-27.423 35.834 0.89399999 0.200708 -0.29748982 -0.15404159 0.39052874
-27.084999 33.283001 0.86000001 0.48626271 -0.10224125 -0.52325642 0.72159684
-27.091 33.185001 0.85900003 0.37804863 -0.32306135 -0.51809669 0.71813202
-26.906 32.747002 0.852 0.41592851 -0.23631915 -0.63769972 0.79718518
-27.181 32.869999 0.85699999 0.44411632 -0.22237028 -0.54370707 0.73641378
-27.158001 32.632 0.85399997 0.44536877 -0.20198479 -0.59960228 0.77374029
-27.18 32.452 0.852 0.43868783 -0.21899284 -0.59400147 0.77022249
-27.275 32.356998 0.85100001 0.44713157 -0.21563391 -0.55516082 0.74473363
-27.195999 32.058998 0.847 0.46017933 -0.18729284 -0.54790711 0.73962545
-27.65 31.475 0.84500003 0.43048921 -0.18258405 -0.67228931 0.81892049
-27.691999 31.323 0.84399998 -0.3671034 0.1734374 -0.20610857 0.45533085
-27.802 31.25 0.84399998 0.40926769 -0.1905434 -0.71389836 0.84466428
-27.254999 30.537001 0.82999998 -0.25921956 0.056850113 -0.072645456 0.27514374
-27.983999 30.961 0.84299999 0.47797397 -0.010749451 -0.6481092 0.80536962
-28.275999 31.087 0.847 0.44648531 -0.17813097 -0.64429057 0.80385953
-28.101999 30.701 0.84100002 0.47163808 -0.084742829 -0.64419478 0.80287653
-28.106001 30.513 0.83899999 0.46768749 -0.014914835 -0.67551911 0.82175428
-28.354 30.589001 0.84200001 0.4187308 -0.08330977 -0.76132172 0.87286127
-27.861 29.961 0.82999998 0.47696862 -0.088351443 -0.3932606 0.62446696
-27.66 29.558001 0.824 0.409154 -0.26115158 -0.40816671 0.63419807
-27.917999 29.646999 0.82700002 0.43511027 -0.20853314 -0.38698435 0.61851752
-27.797001 29.333 0.82200003 0.42592469 -0.25122336 -0.48623675 0.69350642
-27.827999 29.181 0.82099998 0.42443961 -0.25139308 -0.53146881 0.72512519
-27.878 29.051001 0.81999999 0.41745928 -0.26010376 -0.54464298 0.73386794
-27.905001 28.896999 0.81900001 0.41689038 -0.2635189 -0.52896202 0.72321546
-28.228001 28.957001 0.82300001 0.43036216 -0.24532554 -0.54040027 0.73309529
-28.334 28.884001 0.82300001 0.43835685 -0.23234649 -0.53813964 0.73193985
-28.341 28.709 0.82099998 0.39858103 -0.29212895 -0.54903454 0.73867792
-26.34 36.889 0.66500002 0.39179322 -0.27255625 -0.36746234 0.60234326
-26.466 36.942001 0.66600001 0.40343681 -0.26249549 -0.3825599 0.61483103
-27.292999 36.617001 0.66900003 0.17491889 -0.20465291 -0.078151286 0.28033382
-27.028 36.144001 0.66299999 0.35435611 -0.30326453 -0.32844609 0.57045108
-27.264 36.222 0.66500002 0.28890947 -0.30495495 -0.23136058 0.4795768
-27.316 35.820999 0.662 0.24252269 -0.33362791 -0.22119367 0.46802935
-27.038 33.132 0.639 0.45283604 -0.2053674 -0.50357455 0.70768887
-26.926001 32.68 0.63499999 0.45856455 -0.19359519 -0.51797736 0.71837389
-26.957001 32.508999 0.634 0.44795728 -0.20278576 -0.58154273 0.76156402
-27.073 32.441002 0.634 0.45298854 -0.18905503 -0.58960021 0.76718241
-27.365999 32.582001 0.63700002 0.42402083 -0.24755469 -0.59033811 0.76783854
-27.15 32.120998 0.63200003 0.45184639 -0.036826693 -0.70785606 0.8405841
-27.322001 32.118999 0.63300002 0.44225779 -0.20634797 -0.60458261 0.77697593
-27.674 32.429001 0.63800001 -0.34278965 0.33395985 -0.35344073 0.59494054
-27.598 32.134998 0.63499999 -0.3555305 0.29080135 -0.3014676 0.54940885
-27.608999 31.944 0.634 -0.32316908 0.23293903 -0.1966019 0.44424224
-27.666 31.808001 0.63300002 -0.34032205 0.17344117 -0.17589 0.42052138
-27.469 31.382 0.62900001 -0.2143742 0.13815032 -0.068588674 0.2640951
-27.745001 31.497 0.63099998 -0.34286967 0.18262121 -0.1835745 0.42966232
-27.757999 31.115999 0.62900001 0.43529412 -0.20436724 -0.63621968 0.79751015
-27.711 30.965 0.62699997 -0.37794003 0.22816791 -0.26240805 0.51357305
-27.43 30.459 0.62099999 0.43061069 -0.019618239 -0.74498475 0.86070478
-27.58 30.431999 0.62199998 0.45552924 0.021084595 -0.69732153 0.83319187
-27.924999 30.618 0.62599999 0.48969492 -0.006528853 -0.59725684 0.7723726
-28.336 30.872999 0.63099998 -0.0087180613 0.43201584 -0.75185406 0.86717826
-28.499001 30.856001 0.63200003 -0.18506426 0.46221006 -0.4738673 0.68734062
-27.739 29.846001 0.61900002 0.49245679 -0.046776295 -0.54442346 0.73559409
-27.686001 29.695 0.61699998 0.46497193 -0.16045485 -0.55640775 0.74265349
-27.797001 29.627001 0.61799997 0.45360291 -0.19146322 -0.55305874 0.74046457
-27.716999 29.357 0.61500001 0.38409483 -0.30982837 -0.47464794 0.6846993
-27.836 29.297001 0.616 0.39369997 -0.29694635 -0.46014744 0.67447197
-27.972 29.256001 0.616 0.40299892 -0.28816518 -0.48003158 0.68983883
-28.358999 28.833 0.616 0.40820217 -0.28171137 -0.52605987 0.72300017
-28.377001 28.671 0.61500001 -0.3496682 0.36148974 -0.45418942 0.67766565
-28.573 28.688 0.616 -0.31560355 0.39369288 -0.49059421 0.70376301
-26.181 37.193001 0.34999999 0.34911707 -0.2911208 -0.30196202 0.54572439
-26.222 37.004002 0.34999999 0.36661306 -0.26513869 -0.29789722 0.54170692
-26.507999 37.159 0.35100001 0.34680149 -0.25118482 -0.24969006 0.49569166
-26.561001 36.987999 0.34999999 0.32265243 -0.27399099 -0.24075979 0.48697117
-26.629999 36.960999 0.34999999 0.27350777 -0.22798494 -0.15306598 0.387573
-26.584999 36.412998 0.34900001 0.35735136 -0.30339903 -0.33953696 0.57882321
-26.719999 36.359001 0.34900001 0.333482 -0.29508254 -0.28122997 0.52666336
-26.85 36.294998 0.34900001 0.3460789 -0.30993924 -0.32561085 0.56732297
-27.021 36.287998 0.34900001 0.35134315 -0.3104417 -0.33635908 0.57702124
-27.285999 36.403999 0.34999999 0.29794005 -0.26514161 -0.20050481 0.44639727
-27.417999 36.342999 0.34999999 0.2303056 -0.27827457 -0.15452132 0.39287943
-27.153999 35.875 0.34900001 0.3005842 -0.34948748 -0.31462017 0.55810231
-27.285 35.813 0.34900001 0.2865575 -0.35928285 -0.31052932 0.55464208
-27.349001 35.664001 0.34799999 0.27980536 -0.34396061 -0.27528983 0.52190465
-27.610001 35.771 0.34900001 0.2153925 -0.37286204 -0.24885684 0.49734271
-27.657 35.601002 0.34900001 0.24511495 -0.35910082 -0.2564972 0.50480253
-27.92 35.707001 0.34999999 -0.16071786 0.41023061 -0.73337686 0.85554719
-28.077 35.675999 0.34999999 -0.18324526 0.46256545 -0.49529552 0.70204222
-28.027 35.498001 0.34900001 -0.14282602 0.47691384 -0.48256716 0.69333768
-28.139 35.41 0.34900001 -0.11080166 0.48472169 -0.47936916 0.69067132
-27.041 33.161999 0.34200001 0.46626201 -0.16870713 -0.53569043 0.72994971
-27.035 32.942001 0.34099999 0.44492885 -0.21760888 -0.54960626 0.73985291
-26.979 32.664001 0.34 0.43381011 -0.23906539 -0.55299222 0.74239063
-26.841 32.394001 0.33899999 0.49725941 -0.011234852 -0.51763141 0.71786869
-27.289 32.308998 0.34 0.40582791 -0.27170667 -0.60383207 0.77661699
-27.466 32.313 0.34 -0.34516767 0.30130899 -0.29885525 0.54703045
-27.481001 32.125 0.34 -0.38622195 0.23724931 -0.28632981 0.53613371
-27.774 32.263 0.34099999 -0.28112948 0.3620753 -0.30062902 0.54818803
-27.424 31.754 0.33899999 0.41631013 -0.19321857 -0.69462997 0.83256131
-28.306 31.955 0.34099999 -0.31818119 0.24938861 -0.21156508 0.4562825
-27.721001 30.900999 0.338 0.48277894 -0.062517181 -0.6104548 0.78079385
-27.909 31.011999 0.338 0.48867953 -0.067561425 -0.58339798 0.76401925
-27.982 30.896999 0.338 0.43442446 -0.23822294 -0.56999129 0.75522506
-28.285 31.035999 0.33899999 0.46145949 -0.095664114 -0.67323244 0.82178974
-28.312 30.870001 0.33899999 0.27173266 -0.35921431 -0.28116083 0.5309661
-27.489 29.596001 0.33399999 0.4219209 -0.15015954 -0.70983595 0.83930457
-27.976999 29.931999 0.336 0.48245147 0.071196198 -0.60718143 0.77877957
-28.115999 29.892 0.336 0.46836585 -0.0016174344 -0.67180276 0.81895554
-27.917999 29.218 0.33399999 0.40935907 -0.27934414 -0.49523252 0.70061636
-28.200001 28.780001 0.33399999 0.3878645 -0.30560997 -0.53435636 0.72758025
-28.191999 28.681999 0.33399999 0.37861028 -0.31644586 -0.5315429 0.72527349
-28.332001 28.643999 0.33399999 -0.33955765 0.37514403 -0.50753349 0.71667475
-28.518 28.650999 0.33399999 -0.29971832 0.40657076 -0.52694654 0.72993392
-28.587999 28.542 0.33399999 -0.28572252 0.41693425 -0.52589822 0.72941107
-28.695 28.469 0.33399999 -0.26310313 0.43084595 -0.53792566 0.73770964
-26.127001 37.359001 0.13600001 0.19142869 -0.33396876 -0.18490228 0.42704675
-26.194 37.207001 0.13600001 0.25355259 -0.26582423 -0.16538018 0.40286726
-26.386 37.23 0.13600001 0.12358218 -0.23758633 -0.0791682 0.2792623
-26.315001 36.883999 0.13600001 0.30475384 -0.23435399 -0.18592721 0.42704287
-26.739 36.741001 0.13600001 0.17310363 -0.10035615 -0.043705642 0.20480822
-26.738001 36.618 0.13600001 0.31763896 -0.28460899 -0.24610287 0.49240574
-26.73 36.368 0.13699999 0.35233968 -0.30510601 -0.33083487 0.5715633
-26.754999 36.162998 0.13699999 0.34245035 -0.32076609 -0.33959514 0.57921326
-27.068001 36.347 0.13600001 0.38991931 -0.30116516 -0.43697399 0.65854675
-27.01 36.030998 0.13699999 0.34717077 -0.33288482 -0.37822878 0.61187977
-26.973 35.748001 0.13699999 0.34792152 -0.32001594 -0.35026056 0.58833838
-27.514 36.227001 0.13600001 0.31551602 -0.35802552 -0.35206246 0.5930267
-27.493999 35.965 0.13600001 0.26738089 -0.37450752 -0.31018609 0.55494493
-27.48 35.830002 0.13699999 0.28334379 -0.35786003 -0.30259776 0.54764307
-27.33 35.404999 0.13699999 0.32094359 -0.24584687 -0.21042576 0.45576799
-27.486 35.375999 0.13699999 0.31801614 -0.21398824 -0.18256891 0.42456642
-27.872 35.639999 0.13600001 0.17593691 -0.39815837 -0.25348091 0.50372261
-27.99 35.561001 0.13600001 -0.14560242 0.43471262 -0.69657391 0.83390069
-28.181999 35.346001 0.13600001 -0.066569336 0.49341333 -0.50830573 0.71152157
-28.389 35.491001 0.13600001 -0.047323395 0.4628748 -0.32571411 0.56796324
-28.614 35.542 0.13600001 0.0034356248 0.49535492 -0.45265773 0.67103451
-26.969 33.075001 0.14 0.46491936 -0.16955926 -0.5504145 0.74017328
-26.958 32.848999 0.141 0.47668928 -0.14295438 -0.51305497 0.71476853
-27.082001 32.791 0.141 0.45041263 -0.2128434 -0.51334113 0.7153272
-27.334 32.883999 0.14 -0.38261676 0.31171408 -0.41283855 0.64342594
-27.426001 32.889999 0.14 -0.35403538 0.3404724 -0.40169543 0.63452482
-27.554001 32.417 0.141 -0.31984127 0.3744227 -0.41172141 0.6418764
-27.459999 32.102001 0.141 -0.39394695 0.29358286 -0.40095395 0.63415235
-27.797001 32.290001 0.14 -0.31523511 0.36415592 -0.36591399 0.60487664
-27.982 32.299 0.14 -0.30343413 0.38135839 -0.39517307 0.6274299
-28.007 32.124001 0.14 -0.32408109 0.37423855 -0.44983312 0.66890424
-28.073999 32.098 0.14 -0.29210034 0.40226373 -0.50034124 0.70532268
-28.148001 31.979 0.14 0.42604646 -0.22530919 -0.64343804 0.80392307
-28.236 31.877001 0.14 0.47493723 -0.12593572 -0.60804659 0.78175813
-28.143 31.174999 0.141 0.48874882 -0.10375807 -0.551081 0.74386251
-28.214001 30.959 0.142 0.48231241 -0.13808663 -0.5055877 0.71225846
-28.105 30.646 0.142 0.47623166 -0.14033401 -0.44167769 0.66450691
-27.593 29.9 0.14300001 0.42828134 -0.10076615 -0.72985607 0.85221392
-27.534 29.649 0.14399999 0.44905084 -0.098978519 -0.68468332 0.82476342
-27.937 29.334 0.14399999 -0.39978367 0.18697499 -0.25898343 0.51172167
-27.914 29.218 0.14399999 -0.3983646 0.21625556 -0.28080261 0.53320813
-28.056 29.183001 0.14399999 0.41798896 -0.20734806 -0.67014939 0.81658322
-28.465 29.055 0.14300001 0.42187807 -0.1354385 -0.73053336 0.85440254
-28.344999 28.752001 0.14399999 0.34148538 -0.35635042 -0.4721562 0.68302953
-28.465 28.691999 0.14399999 -0.30670625 0.39768311 -0.56139344 0.75324839
-28.664 28.621 0.14399999 0.26332894 -0.38806403 -0.34408897 0.58166403
-28.735001 28.513 0.14399999 -0.23164651 0.43889844 -0.60226846 0.78039682
-30.368999 29.944 0.14 -0.048654936 -0.30061162 -0.10778275 0.32303524
-30.280001 29.669001 0.141 0.48069844 0.2102869 -0.53875107 0.75202674
-30.679001 29.684 0.14 0.52262115 0.06194045 -0.43527293 0.68295825
-25.726999 37.194 -0.15099999 0.29231668 -0.051112518 -0.10226551 0.3138786
-25.914 37.215 -0.152 -0.2495387 0.43365425 -0.55366933 0.74624079
-26.806 36.264999 -0.15000001 0.39929026 -0.29065776 -0.53902364 0.73106849
-26.966999 36.006001 -0.149 0.41142368 -0.27634287 -0.502648 0.7058965
-27.049999 35.881001 -0.148 0.40267348 -0.28853053 -0.47885901 0.68898606
-27.242001 35.901001 -0.149 0.34860295 -0.34684539 -0.43084332 0.65379792
-27.212999 35.630001 -0.148 0.39234322 -0.26296842 -0.34652245 0.58580148
-27.288 35.495998 -0.147 0.40714145 -0.21372065 -0.31163538 0.55547929
-27.549 35.720001 -0.15000001 0.29092702 -0.38009021 -0.36543655 0.6022051
-27.268 34.898998 -0.14300001 0.49391907 0.046059467 -0.47887877 0.68949431
-27.278999 34.688 -0.142 0.48376644 -0.013276016 -0.39035338 0.62175715
-27.233999 34.407001 -0.14 0.44364658 -0.057685968 -0.2848025 0.5303418
-27.533001 34.563 -0.142 0.49259591 0.022667136 -0.43720314 0.65902287
-27.660999 34.499001 -0.14300001 0.4922328 0.014178643 -0.4237631 0.64966863
-26.782 33.081001 -0.13 0.49334782 0.026494645 -0.54705292 0.73713022
-26.854 32.958 -0.12899999 0.48152429 -0.12022161 -0.51617062 0.7160663
-26.941 32.853001 -0.12899999 0.45902658 -0.19126664 -0.51821345 0.71821547
-27.271999 33.044998 -0.132 0.48734313 -0.095177159 -0.53869724 0.73263687
-27.438999 33.035999 -0.133 0.46973518 -0.16398697 -0.53347141 0.72947556
-27.256001 32.605 -0.12899999 0.40283686 -0.29427069 -0.49988085 0.70622492
-27.384001 32.549999 -0.12899999 0.38772008 -0.3141551 -0.4975431 0.70467681
-27.400999 32.466999 -0.12899999 0.34598812 -0.35834864 -0.4668498 0.68269342
-27.495001 32.372002 -0.12899999 -0.32295108 0.3809121 -0.53244549 0.72999287
-27.815001 32.541 -0.132 -0.28423107 0.40455329 -0.57661206 0.75956047
-28.134001 32.705002 -0.134 0.080395721 -0.33572632 -0.13679218 0.37133238
-28.219 32.390999 -0.133 -0.057456527 0.39790761 -0.79377055 0.88977718
-28.396 32.388 -0.134 0.025467701 0.39920166 -0.79675901 0.89153546
-28.591 32.098 -0.133 0.064960785 0.34396988 -0.85492241 0.92381144
-27.539 30.719999 -0.119 0.48881498 -0.034937102 -0.58559984 0.7636019
-27.643 30.643 -0.119 0.48980248 -0.0062301387 -0.58904809 0.76610899
-27.895 30.728001 -0.121 0.49589753 -0.059437953 -0.51646113 0.71845621
-27.889 30.528 -0.12 0.49489757 0.01175513 -0.56636268 0.75221574
-27.774 30.209999 -0.118 0.47639138 -0.0076289326 -0.64653403 0.80312717
-27.694 30.028 -0.116 0.46381563 -0.061825208 -0.66780299 0.81541896
-27.539 29.672001 -0.113 0.49026105 0.080172315 -0.53233898 0.72812659
-28.145 30.136 -0.119 -0.39919171 0.17587762 -0.25086659 0.50321072
-28.25 30.056999 -0.119 -0.32452703 0.25144002 -0.21007302 0.46116218
-28.462999 30.094999 -0.121 -0.10135782 0.42011163 -0.75728071 0.87191814
-28.511 29.955999 -0.12 -0.24102286 0.31252384 -0.18873119 0.437473
-28.764999 30.034 -0.122 -0.081257693 0.41848221 -0.76713276 0.87762338
-28.837 29.92 -0.122 -0.078505695 0.43231913 -0.74562794 0.86546171
-29.028999 30.025 -0.123 0.11542386 -0.37120241 -0.18799365 0.43180493
-29.202 30.014999 -0.124 0.15709086 -0.34981227 -0.17827299 0.42287993
-28.355 28.419001 -0.111 0.31821245 -0.36055315 -0.38939717 0.61877936
-28.466 28.351999 -0.111 0.25166225 -0.38318437 -0.31890082 0.55844593
-28.599001 28.395 -0.112 0.25321189 -0.38314107 -0.32039678 0.55997092
-30.084999 29.684999 -0.127 0.041767038 -0.34417224 -0.13822332 0.37323543
-30.017 29.431999 -0.126 0.27022085 0.37817961 -0.28008217 0.54266483
-28.952999 28.209 -0.113 -0.1699083 0.46748519 -0.60421258 0.78261364
-28.976 28.056 -0.112 -0.20956363 0.42139515 -0.31182879 0.56456
-27.214001 35.944 -0.426 0.41005924 -0.27928823 -0.48080906 0.69088918
-27.271 35.785 -0.42500001 0.43501717 -0.23616028 -0.46217185 0.67721081
-27.521999 35.880001 -0.428 0.38924393 -0.30712372 -0.46431035 0.67927897
-27.466999 35.577 -0.42399999 0.4360956 -0.22477873 -0.4209739 0.64647031
-27.509001 35.400002 -0.42300001 0.46548152 -0.15195791 -0.41481435 0.6417439
-27.486 35.144001 -0.41999999 0.49663287 0.018553795 -0.4895981 0.69763511
-27.261 34.743 -0.414 0.49415818 0.043024007 -0.478706 0.68934953
-27.318001 34.591999 -0.412 0.49073046 0.0095436601 -0.42585915 0.64981806
-27.302 34.348999 -0.41 0.48161283 -0.041304465 -0.38723114 0.61935848
-27.666 33.923 -0.40799999 0.49208173 -0.029203121 -0.4269942 0.6521666
-26.899 32.772999 -0.389 0.47782674 -0.13748091 -0.49555686 0.7019943
-26.908001 32.68 -0.38800001 0.48332021 -0.11734655 -0.48616588 0.69550407
-26.995001 32.576 -0.38800001 0.48518518 -0.11118062 -0.50603324 0.70981365
-27.546 33.028999 -0.39700001 0.47431609 -0.13308337 -0.42354727 0.64967626
-27.364 32.602001 -0.391 0.38907966 -0.29439032 -0.39672303 0.62883848
-27.346001 32.374001 -0.38800001 0.36200377 -0.32553086 -0.39236933 0.62527657
-26.945 31.697001 -0.37799999 0.47304326 0.012922167 -0.65221107 0.80580157
-27.365999 31.987 -0.38499999 -0.29615101 0.39476511 -0.58877289 0.76824373
-27.163 31.65 -0.37900001 -0.37427106 0.26885387 -0.30002671 0.54988837
-27.756001 32.134998 -0.38999999 0.30973759 -0.34711191 -0.31733674 0.56313998
-27.945999 32.150002 -0.39199999 0.28384119 -0.37333179 -0.32111493 0.56838125
-27.671 31.632999 -0.384 0.45184344 -0.21314348 -0.499888 0.70673949
-27.851999 31.440001 -0.38299999 0.48853642 -0.1063972 -0.53783435 0.73433912
-28.143999 31.568001 -0.38699999 0.48971558 -0.081297815 -0.42108595 0.65095627
-28.113001 31.334999 -0.38499999 0.50179207 0.011969744 -0.51240671 0.71728599
-28.094 31.215 -0.38299999 0.50133276 0.017859416 -0.52111393 0.72333479
-28.181 31.115 -0.38299999 0.49843919 0.058379479 -0.52152133 0.723764
-28.016001 30.738001 -0.377 0.48688787 -0.091447398 -0.42876166 0.65517861
-27.969 30.493999 -0.37400001 0.48702627 -0.10709902 -0.50851667 0.71221769
-28.049999 30.389999 -0.37400001 0.45392996 -0.20037618 -0.45957488 0.67632246
-28.125 30.09 -0.37200001 -0.26978993 0.40706658 -0.37499577 0.61572045
-28.327 30.211 -0.375 -0.21224338 0.4346385 -0.63804197 0.80065936
-28.243999 29.933001 -0.37099999 -0.21194629 0.38521624 -0.25330824 0.50742275
-28.393 29.902 -0.37200001 -0.22793445 0.38466898 -0.2671119 0.52083886
-28.726 29.874001 -0.375 -0.18267941 0.4431372 -0.65524864 0.81184548
-29.002001 29.972 -0.37900001 -0.16749318 0.41687959 -0.72364497 0.85176557
-29.139999 29.927 -0.38 0.2135776 -0.40343371 -0.29706067 0.54462761
-28.232 28.542999 -0.35699999 0.35506615 -0.3234891 -0.38577932 0.61607051
-29.334999 29.471001 -0.377 0.26456091 -0.39664251 -0.34574962 0.58894867
-29.473 29.24 -0.37599999 0.31325105 -0.35894719 -0.33802819 0.58415097
-29.702 29.283001 -0.37900001 0.2641834 -0.29321852 -0.18139395 0.4343659
-29.93 29.323 -0.382 0.19700983 -0.35448781 -0.19710612 0.45091608
-29.886999 29.188999 -0.38 0.20931406 0.079571962 -0.042331457 0.22789477
-30.058001 29.171 -0.382 0.21369801 -0.19957928 -0.083680302 0.30413997
-27.393999 35.985001 -0.74299997 0.45312437 -0.20116587 -0.46568772 0.68018711
-27.285999 35.610001 -0.736 0.47143137 -0.15526126 -0.48445347 0.69357681
-27.357 35.472 -0.73400003 0.48572093 -0.10237656 -0.52034318 0.71914029
-27.044001 34.837002 -0.72000003 0.49271837 0.054122116 -0.50629282 0.70854288
-27.059 34.632999 -0.71600002 0.49492839 0.023032524 -0.50591475 0.70812029
-27.377001 34.813 -0.72399998 0.47929746 0.042621914 -0.62278163 0.78701949
-27.889 35.237 -0.73699999 0.49507922 0.039926551 -0.46147797 0.67798191
-27.179001 34.007999 -0.708 0.48909709 -0.062850401 -0.44447994 0.66387391
-27.221001 33.841 -0.70599997 0.4957515 0.036708456 -0.51213217 0.71372014
-27.316999 33.743 -0.70499998 0.49586916 0.025884757 -0.53241754 0.72802794
-27.649 33.717999 -0.70899999 0.48729408 0.071660884 -0.57779193 0.7592327
-27.052 32.778999 -0.68599999 0.49101582 -0.064612255 -0.54933465 0.73962146
-26.952999 32.451 -0.67900002 0.45754743 -0.18790682 -0.44642225 0.66629684
-26.98 32.379002 -0.67900002 0.45792842 -0.18936962 -0.4524982 0.6710543
-27.108999 32.326 -0.68000001 0.40609109 -0.27528358 -0.41449708 0.64226073
-27.353001 32.410999 -0.68400002 0.41410825 -0.2692847 -0.434843 0.65809447
-27.094 31.899 -0.67199999 0.36431068 -0.33110282 -0.42434704 0.64993984
-27.381001 32.033001 -0.67900002 0.37134111 -0.32749268 -0.44542205 0.66599286
-27.614 32.102001 -0.68300003 0.33143759 -0.34103468 -0.34829724 0.58946288
-27.771 32.080002 -0.685 0.28160545 -0.38584673 -0.35116261 0.5928697
-27.893999 32.118999 -0.68699998 0.28652662 -0.38758039 -0.36185801 0.60270828
-27.951 31.982 -0.68599999 0.28037873 -0.3926661 -0.36212105 0.6032666
-28.065001 31.909 -0.68599999 0.26136321 -0.40040982 -0.34703237 0.59082162
-28.129 31.780001 -0.685 0.28032023 -0.39475057 -0.36624241 0.60707575
-28.153 31.606001 -0.68199998 0.48744416 -0.11039299 -0.44659063 0.67024744
-28.099001 31.346001 -0.67799997 0.49893612 -0.054233406 -0.47936442 0.69402361
-28.267 31.334999 -0.68000001 0.50168085 0.028278204 -0.49401057 0.70464867
-27.822001 30.745001 -0.66399997 0.49599123 -0.053208899 -0.47329298 0.68763703
-27.972 30.521999 -0.66299999 0.47568995 -0.14870751 -0.48412445 0.69481748
-28.061001 30.427 -0.66299999 0.45312446 -0.20514704 -0.47549403 0.68811458
-27.997 30.167 -0.65799999 -0.30480051 0.40117425 -0.50363725 0.71238655
-28.040001 30.023001 -0.65600002 -0.25906175 0.43095919 -0.54262769 0.73978621
-28.236 30.042999 -0.65899998 -0.20755325 0.44938925 -0.59804416 0.77632844
-28.495001 30.128 -0.66399997 -0.20242368 0.43826026 -0.64208859 0.8033213
-28.535 30.076 -0.66399997 -0.21611917 0.42777914 -0.65389353 0.8107276
-28.546 29.9 -0.662 -0.19322182 0.44089264 -0.65195161 0.81040847
-28.676001 29.847 -0.66299999 -0.19640289 0.43518183 -0.66318351 0.81717175
-28.844999 29.834999 -0.66500002 -0.20148568 0.43620986 -0.6504693 0.80869395
-29.079 29.889 -0.66900003 -0.23398645 0.42730188 -0.61930138 0.78795356
-29.195 29.82 -0.67000002 -0.26344427 0.41334063 -0.59966862 0.77450359
-29.212 29.65 -0.66799998 -0.25874364 0.41134667 -0.61831665 0.78642851
-29.129 29.473 -0.66399997 -0.24894962 0.41162699 -0.64285821 0.80291927
-29.226999 29.386999 -0.66399997 0.27372926 -0.39439866 -0.36241806 0.60151881
-29.403999 29.379999 -0.66600001 0.26221874 -0.39512488 -0.34005487 0.58354062
-29.461 29.252001 -0.66500002 0.27450541 -0.38225931 -0.32755181 0.57338083
-29.759001 29.363001 -0.67199999 0.16294383 -0.32948604 -0.1556001 0.39915302
-29.59 29.013 -0.66399997 0.37774071 -0.32349685 -0.40586478 0.64192247
-27.299999 35.945 -0.972 0.46616676 -0.16469413 -0.45334524 0.67078871
-27.392 35.832001 -0.97100002 0.44700733 -0.2153794 -0.48013914 0.69046175
-27.290001 35.583 -0.96499997 0.44963714 -0.20514509 -0.45230308 0.66995233
-27.421 35.522999 -0.96600002 0.46789169 -0.16651367 -0.49020535 0.69781858
-27.226 35.042 -0.95300001 0.48824489 -0.066073678 -0.55267352 0.74040312
-27.361 34.987999 -0.954 0.49154359 -0.042152766 -0.55296135 0.74105209
-27.694 35.186001 -0.963 0.49538398 -0.0075622359 -0.53984529 0.73273146
-27.909 35.23 -0.96700001 0.42327133 0.19951926 -0.67279649 0.8195253
-28.072001 35.095001 -0.96700001 0.29951969 0.34743208 -0.69861662 0.83575493
-27.372 34.000999 -0.93400002 0.47948498 0.0015371518 -0.63293839 0.79405242
-27.511999 33.738998 -0.93099999 0.46411934 0.11088955 -0.64495605 0.80229145
-27.046 32.957001 -0.90700001 0.48730561 0.074239619 -0.56930518 0.75305158
-27.145 32.866001 -0.90700001 0.493191 0.0057661459 -0.5675531 0.75192231
-27.205999 32.729 -0.90499997 0.48468378 -0.10355109 -0.54846478 0.7392258
-27.138 32.439999 -0.898 0.44535643 -0.21935147 -0.46626425 0.68107253
-27.208 32.419998 -0.89899999 0.43812096 -0.23393476 -0.46791327 0.68236226
-27.371 32.408001 -0.90200001 0.42400393 -0.25821304 -0.46121034 0.67761958
-27.379 32.210999 -0.898 0.35835531 -0.33766317 -0.4244661 0.65008187
-27.243999 31.85 -0.88800001 0.33274519 -0.29805559 -0.27989876 0.52716202
-27.447001 31.882999 -0.89200002 0.27515328 -0.35445696 -0.28263062 0.53031039
-27.756001 32.036999 -0.90100002 -0.33395928 0.36386496 -0.42452136 0.65126407
-27.871 31.966 -0.90100002 -0.29638267 0.39004478 -0.40674481 0.63672519
-27.959999 31.968 -0.903 -0.28146526 0.40921709 -0.46137884 0.67790246
-27.983999 31.792999 -0.89999998 -0.27709815 0.38163996 -0.33900654 0.58082515
-27.743 31.32 -0.88599998 0.44774833 -0.10341319 -0.30071411 0.54918289
-27.825001 31.215 -0.88599998 0.49569032 -0.067867428 -0.52488452 0.72513354
-28.341999 31.594 -0.90200001 -0.34263247 0.3376312 -0.37397766 0.60930383
-28.466999 31.533001 -0.903 0.41200736 -0.24220198 -0.65725625 0.81264853
-27.872 30.681 -0.87599999 0.48584887 -0.086201742 -0.421231 0.64877993
-27.987 30.614 -0.87699997 0.48053017 -0.13469897 -0.51613307 0.71794599
-28.054001 30.59 -0.87800002 0.46752566 -0.1740292 -0.51968223 0.72037214
-27.732 30.049999 -0.86199999 -0.37340641 0.3198081 -0.38708171 0.62573302
-27.799999 29.934999 -0.861 -0.38162985 0.3191388 -0.41816193 0.64988482
-28.034 29.996 -0.866 -0.29897586 0.40636802 -0.49562076 0.70722097
-28.202999 29.988001 -0.86900002 -0.234511 0.43698952 -0.59275824 0.77286321
-28.493999 30.107 -0.87599999 -0.22729214 0.42689627 -0.63945246 0.80174905
-28.591 29.926001 -0.875 -0.19956215 0.43839777 -0.64960217 0.80870301
-28.641001 29.790001 -0.87300003 -0.19070128 0.44317412 -0.65008426 0.80955535
-28.787001 29.754 -0.875 -0.20615837 0.43948853 -0.6383689 0.8019765
-29.113001 29.903 -0.884 -0.23417772 0.41800869 -0.64652669 0.80471563
-29.172001 29.775 -0.88200003 0.25808367 -0.39635858 -0.34136426 0.58329827
-29.351 29.77 -0.88599998 -0.24568546 0.41462803 -0.62888336 0.79232067
-29.344999 29.577 -0.88200003 -0.25777468 0.40805477 -0.62741268 0.79158264
-29.246 29.385 -0.87599999 0.2683579 -0.39240864 -0.34730175 0.58874357
-29.309 29.264999 -0.875 -0.25735378 0.41995043 -0.59075356 0.76914179
-29.440001 29.211 -0.87699997 -0.25385526 0.41480511 -0.61411333 0.78335238
-29.547001 29.134001 -0.87699997 -0.25922239 0.4265312 -0.49209177 0.70091325
-29.962999 29.174999 -0.88599998 0.17765833 -0.34824806 -0.18096313 0.4307979
-30.181999 29.204 -0.89099997 0.13901085 -0.33297604 -0.14729634 0.38973486
-26.778999 35.985001 -1.2309999 0.46192172 -0.14984466 -0.40654042 0.63332474
-26.934 35.957001 -1.234 0.47393477 -0.10500929 -0.40182632 0.63016307
-27.191999 36.064999 -1.2410001 0.47261965 -0.10614427 -0.39188164 0.62306273
-27.274 35.938 -1.24 0.45798033 -0.16124466 -0.39518186 0.62603074
-27.382 35.846001 -1.239 0.44046009 -0.20469362 -0.39621115 0.62680763
-27.48 35.741001 -1.239 0.40819919 -0.26049918 -0.38915768 0.62123275
-27.556 35.608002 -1.237 0.44585976 -0.2029908 -0.4163692 0.64293039
-27.039 34.826 -1.207 0.49056923 -0.038184404 -0.55488878 0.74163181
-27.186001 34.789001 -1.209 0.49343497 0.0015286847 -0.54777914 0.73725325
-27.791 35.106998 -1.229 0.45627651 -0.16305514 -0.38933539 0.62157643
-27.929001 35.054001 -1.23 0.43413022 -0.19667357 -0.35969388 0.59710068
-28.141001 35.094002 -1.235 0.43210313 0.18807028 -0.33635303 0.57897919
-27.169001 33.661999 -1.1799999 0.47867361 0.11166659 -0.5787726 0.75932574
-27.221001 33.619999 -1.1799999 0.47258928 0.12882872 -0.5902791 0.7670508
-27.642 33.705002 -1.191 0.47820809 0.081210166 -0.61478955 0.78309911
-27.042 32.762001 -1.155 0.49513006 -0.0028827249 -0.55024403 0.74022335
-27.334 32.903999 -1.165 0.48347023 -3.9650244e-05 -0.61954683 0.7858637
-27.337 32.699001 -1.16 0.47506404 -0.10068025 -0.60991794 0.77962953
-27.238001 32.372002 -1.15 0.44231844 -0.22195977 -0.55055654 0.74028659
-27.159 32.073002 -1.141 0.42296496 -0.24246813 -0.40021142 0.63076091
-27.277 32.109001 -1.1440001 0.42897618 -0.23885396 -0.41936013 0.64570481
-27.278999 31.908001 -1.1390001 0.3731173 -0.27298614 -0.31554326 0.55973697
-27.341 31.778 -1.137 0.29582855 -0.350757 -0.30692995 0.5520426
-27.697001 31.988001 -1.15 -0.31002232 0.38911933 -0.44834363 0.66973108
-27.813999 31.921 -1.151 -0.28608128 0.40693265 -0.53670382 0.73177028
-27.976 31.903999 -1.154 -0.27945748 0.41210693 -0.47565976 0.68860787
-28.041 31.775999 -1.152 -0.2519877 0.42964089 -0.48815107 0.69740993
-28.076 31.715 -1.151 -0.31735837 0.37788832 -0.43492538 0.65778112
-28.197001 31.65 -1.152 0.40532455 -0.27757373 -0.60527754 0.77954865
-28.309999 31.577 -1.153 -0.2806589 0.3840251 -0.35363501 0.59270769
-28.429001 31.51 -1.154 -0.23374896 0.40861881 -0.33854851 0.5798474
-28.663 31.57 -1.16 -0.023189344 0.48661444 -0.39385438 0.62646037
-28.274 29.702 -1.108 0.13034086 -0.38958532 -0.22336599 0.46760863
-28.694 29.767 -1.119 -0.16088536 0.441825 -0.68481219 0.83069921
-28.959 29.761 -1.125 -0.2175941 0.41992614 -0.67260998 0.82224655
-29.007 29.622999 -1.123 0.265964 -0.38576725 -0.33228213 0.57442546
-29.132999 29.565001 -1.124 0.27626684 -0.38483956 -0.34276226 0.5847314
-29.288 29.535999 -1.127 -0.25240764 0.41230825 -0.62896031 0.79328358
-29.421 29.485001 -1.1289999 -0.23504697 0.42997622 -0.59793192 0.77307773
-29.941 28.986 -1.1289999 0.14666677 -0.26582274 -0.099153817 0.31938121
-26.892 35.729 -1.52 0.47772065 -0.12331805 -0.4607074 0.6750375
-27.305 36.041 -1.539 0.44360867 -0.17965589 -0.36720604 0.6032455
-27.125 35.57 -1.52 0.46264589 -0.167072 -0.43703249 0.65799063
-27.184 35.417 -1.517 0.46295226 -0.16510512 -0.43495941 0.65633392
-27.285999 35.32 -1.517 0.4470242 -0.19001573 -0.39918616 0.6287179
-27.525 35.397999 -1.525 0.45443487 -0.19341655 -0.44738346 0.66638803
-27.412001 35.025002 -1.511 0.46563756 -0.15309659 -0.42618927 0.64953381
-27.683001 35.030998 -1.517 0.45093238 -0.15336882 -0.36098355 0.59763795
-27.594 34.693001 -1.505 0.49639386 -0.022866471 -0.49228948 0.69948459
-27.67 34.566002 -1.503 0.49063292 -0.065402068 -0.45442849 0.67194003
-27.754999 34.449001 -1.501 0.49506202 -0.026306972 -0.45353636 0.67191792
-27.384001 33.771999 -1.472 0.48835492 0.082184158 -0.55051154 0.74047804
-27.556999 33.768002 -1.476 0.48868772 0.08195249 -0.5505107 0.74067128
-26.681 32.178001 -1.4069999 0.46064514 -0.14725792 -0.39010146 0.62133569
-27.575001 32.832001 -1.449 0.47095615 -0.036612812 -0.65810567 0.81008846
-27.695 32.764999 -1.45 0.44375774 -0.13468142 -0.68240827 0.82507032
-27.399 32.209 -1.426 0.37312081 -0.32914051 -0.50710279 0.71042651
-27.464001 32.082001 -1.424 -0.3501147 0.35842222 -0.46694928 0.68490028
-27.478001 31.997 -1.4220001 -0.34991199 0.35889849 -0.47370636 0.68966967
-27.664 32.007999 -1.427 -0.32252061 0.37656236 -0.43005392 0.65632701
-28.1 31.900999 -1.4349999 -0.22654904 0.44159862 -0.45767283 0.67512834
-28.344999 31.975 -1.443 -0.1533131 0.47024292 -0.44324976 0.66415638
-28.465 31.908001 -1.444 -0.03090675 0.49745142 -0.49719647 0.70400107
-28.448 29.568001 -1.378 -0.11850928 0.42861831 -0.74017608 0.86349219
-28.93 29.507 -1.3890001 0.25022876 -0.36883307 -0.28156307 0.52719069
-27.157 36.062 -1.804 0.42834449 -0.21367374 -0.37037367 0.60523725
-27.084999 35.731998 -1.791 0.45269722 -0.20103163 -0.48165476 0.69089782
-27.128 35.672001 -1.79 0.45903921 -0.185644 -0.47318596 0.68489826
-27.268 35.623001 -1.7920001 0.45490164 -0.19096296 -0.55407935 0.74189371
-27.195 35.297001 -1.778 0.47101119 -0.15340114 -0.51312536 0.71321881
-27.268999 35.164001 -1.776 0.48072267 -0.12056854 -0.49183905 0.69823825
-27.49 35.220001 -1.784 0.48310202 -0.11352753 -0.49357799 0.69992518
-27.552 35.071999 -1.78 0.48520604 -0.086792663 -0.44423753 0.66355473
-27.635 34.951 -1.778 0.48667839 -0.072193287 -0.43405184 0.65610117
-27.469999 34.630001 -1.762 0.48790461 -0.06821084 -0.43867165 0.65964872
-27.625999 34.603001 -1.766 0.48182729 -0.068703279 -0.40050054 0.63030022
-27.483 34.202999 -1.748 0.49669823 0.0034621889 -0.51746792 0.71728247
-27.749001 34.312 -1.7589999 0.48934001 -0.032444358 -0.41514438 0.64253491
-27.719 34.056 -1.749 0.49464959 0.05846208 -0.49757487 0.70404315
-27.787001 33.921001 -1.747 0.49485549 0.058394 -0.49755397 0.70416743
-27.789 33.707001 -1.739 0.4971582 0.025909554 -0.49655685 0.70314032
-27.658001 33.333 -1.723 0.49778983 0.0022127375 -0.51335186 0.71507323
-26.964001 32.391998 -1.671 0.49256599 0.067845933 -0.51438338 0.7154122
-26.908001 32.118999 -1.66 0.48954415 0.072176464 -0.44890776 0.66811758
-27.648001 32.793999 -1.704 0.46643588 -0.068098903 -0.66108692 0.81193334
-27.870001 32.847 -1.712 0.44083589 -0.096170135 -0.71288657 0.84367782
-27.23 31.888 -1.661 0.41449353 -0.2732954 -0.47512189 0.68719435
-27.139 31.58 -1.648 0.41023955 -0.26803616 -0.42275137 0.64719284
-27.233999 31.49 -1.648 0.39513034 -0.29023123 -0.42391786 0.6481269
-27.316999 31.486 -1.65 0.40056261 -0.29404089 -0.49464843 0.70113301
-28.120001 32.207001 -1.698 -0.29901236 0.38360855 -0.39309546 0.62537026
-28.110001 31.993 -1.691 -0.24221773 0.41418627 -0.36573619 0.60330975
-28.302999 32.008999 -1.697 -0.22771251 0.41974324 -0.3601619 0.5981254
-28.389 31.903999 -1.696 -0.11271974 0.4705379 -0.38098502 0.61584193
-28.023001 31.292999 -1.665 0.18155578 0.4220019 -0.30052766 0.54896718
-28.365999 31.476999 -1.681 -0.001393531 0.46167803 -0.31051356 0.55638766
-28.58 31.415001 -1.6849999 0.12240057 0.47238907 -0.39026871 0.62485439
-28.715 31.365 -1.688 0.021178909 0.49780038 -0.46289566 0.68009275
-27.231001 35.216999 -2.0320001 0.45397863 -0.064432219 -0.68929571 0.82787484
-27.57 35.424 -2.05 0.48059705 -0.12218396 -0.5296945 0.7255885
-27.381001 34.956001 -2.026 0.47469419 -0.049509112 -0.63500589 0.79436654
-27.382 34.731998 -2.017 0.4823955 -0.10728873 -0.46308118 0.67724478
-27.466 34.613998 -2.0150001 0.48468053 -0.083466418 -0.43364954 0.65569335
-27.660999 34.634998 -2.0220001 0.45957562 -0.094106704 -0.33700222 0.57761258
-27.448 34.147999 -1.9960001 0.49458346 0.027433151 -0.45828772 0.67482811
-27.452 34.043999 -1.992 0.49521795 0.047654804 -0.50317109 0.7075966
-27.423 33.791 -1.9809999 0.49170324 0.061839741 -0.54337806 0.73542911
-27.200001 33.301998 -1.955 0.49214083 0.02737128 -0.56503105 0.74980789
-27.219999 33.112999 -1.949 0.48886454 0.0013894711 -0.59074569 0.7667926
-27.664 33.438 -1.975 0.49428472 -0.035971314 -0.5444693 0.73624599
-27.297001 32.785 -1.938 0.48963043 0.088079497 -0.51690179 0.71741438
-27.176001 32.432999 -1.921 0.43475699 0.20173496 -0.63476092 0.79538172
-27.354 32.438 -1.927 0.4705767 0.10570573 -0.62381601 0.7885192
-27.712 32.757 -1.951 0.44310138 -0.091825522 -0.70835084 0.84055436
-27.73 32.57 -1.944 0.42224145 -0.17579047 -0.69779372 0.83432984
-27.299 31.861 -1.903 -0.31005168 0.31013623 -0.25476718 0.50717139
-27.301001 31.662001 -1.895 -0.25063729 0.39679202 -0.32094967 0.56856984
-27.24 31.392 -1.883 -0.24472909 0.37630773 -0.27310997 0.52544165
-27.094999 31.028 -1.865 -0.13423815 0.27063981 -0.097276479 0.31737754
-27.264999 31.025 -1.87 -0.13275942 0.27411225 -0.099692851 0.32047036
-27.999001 31.757999 -1.9220001 -0.034103259 0.45008853 -0.28657615 0.53466684
-28.025 31.587999 -1.9170001 0.056832474 0.40337777 -0.21061885 0.45858899
-27.966 31.322001 -1.905 0.19106138 0.29565227 -0.14375716 0.38023788
-28.495001 31.712 -1.937 -0.0014871571 0.45910856 -0.3041352 0.55070961
-27.304001 34.425999 -2.2809999 0.45267686 -0.064879455 -0.30786812 0.55127895
-27.343 34.252998 -2.2750001 0.4938764 -0.0040451954 -0.44724631 0.66630286
-27.719999 34.502998 -2.299 0.47451454 -0.07498084 -0.37276101 0.60806
-27.818001 34.403 -2.299 0.49508652 -0.034623522 -0.53032929 0.72633231
-27.353001 33.611 -2.247 0.48983821 0.058147177 -0.56373006 0.74907553
-27.301001 33.438999 -2.2379999 0.49251723 -0.038695566 -0.55184865 0.7406804
-27.468 33.429001 -2.243 0.48007271 -0.075587504 -0.6052897 0.77624667
-27.577999 33.348999 -2.244 0.48371467 -0.025077747 -0.61354178 0.78169197
-26.794001 32.193001 -2.165 0.44358364 0.097208813 -0.702407 0.83641589
-26.844999 32.049 -2.161 0.47766662 0.082384266 -0.60970849 0.7789076
-27.195 32.261002 -2.1830001 -0.29459518 -0.073975757 -0.1008772 0.32005459
-27.454 32.361 -2.1960001 -0.027082222 -0.30431196 -0.10489267 0.32301965
-27.816999 32.582001 -2.2190001 0.37378746 -0.026385164 -0.82980859 0.91049194
-27.695 32.334 -2.204 0.019172478 0.4751139 -0.65581071 0.8100546
-27.827 32.077999 -2.198 0.0070969043 0.25700566 -0.071102738 0.26675433
-28.052 32.133999 -2.2090001 -0.016642204 0.36249152 -0.15684626 0.39531988
-28.013 31.886 -2.197 0.03330772 0.35531425 -0.1502161 0.38719827
-27.941 31.604 -2.1819999 0.091212116 0.34939742 -0.15454513 0.39278799
-27.827 31.275 -2.164 0.11722989 0.3167361 -0.13071871 0.36214912
-27.304001 33.751999 -2.483 0.48753977 0.045733392 -0.58352387 0.76176548
-27.42 33.679001 -2.484 0.45254034 0.072086461 -0.69410467 0.83172745
-27.466999 33.627998 -2.483 0.43399921 0.030390855 -0.74137682 0.8596037
-27.580999 33.551998 -2.484 0.43738294 0.0075055584 -0.73719656 0.85721582
-27.742001 33.533001 -2.4890001 0.43785504 -0.01165113 -0.73632312 0.85675234
-26.652 32.012001 -2.3740001 0.43863326 -0.17359728 -0.65191257 0.80468947
-26.834 32.025002 -2.382 0.41886139 0.012976401 -0.76743847 0.87439984
-27.002001 32.021 -2.388 -0.31724551 0.16369139 -0.14654231 0.38589406
-27.169001 32.014 -2.395 -0.11789719 0.18569179 -0.049577892 0.2254754
-27.285 32.048 -2.401 -0.16653425 0.17838487 -0.061692446 0.25171566
-27.837 32.078999 -2.425 0.029874399 0.25096628 -0.068354607 0.26181847
-28.240999 32.339001 -2.4530001 0.01222831 0.30314395 -0.1030077 0.32040033
-28.266001 32.162998 -2.4460001 0.09980154 0.30632523 -0.11755559 0.34295017
-28.393999 32.104 -2.448 -0.024891574 0.33513236 -0.13064402 0.36055672
-27.844999 33.671001 -2.8039999 0.3335191 0.046765067 -0.8673299 0.93042094
-27.929001 33.557999 -2.802 -0.32003337 0.032651007 -0.11491379 0.34160301
-28.271 33.752998 -2.8269999 -0.27321711 -0.061241597 -0.085505009 0.29276139
