# .PCD v0.7 - Point Cloud Data file format
VERSION 0.7
FIELDS x y z normal_x normal_y normal_z curvature
SIZE 4 4 4 4 4 4 4
TYPE F F F F F F F
COUNT 1 1 1 1 1 1 1
WIDTH 209
HEIGHT 1
VIEWPOINT 0 0 0 1 0 0 0
POINTS 209
DATA ascii
-14.483 38.293999 1.594 0.18934789 -0.32532319 -0.19135424 0.42226088
-14.493 38.138 1.589 0.16428965 -0.25994337 -0.11976761 0.33000898
-14.597 38.053001 1.587 0.19395025 -0.24092002 -0.12361151 0.33307502
-14.032 38.650002 1.3380001 0.36121112 -0.27631843 -0.36209971 0.58132744
-14.123 38.523998 1.336 0.31011355 -0.30087888 -0.29429141 0.52278674
-14.26 38.521999 1.337 0.26733249 -0.33166176 -0.27584201 0.5074988
-14.382 38.479 1.337 0.2116697 -0.37647784 -0.27799529 0.5136351
-14.468 38.341999 1.335 0.17833783 -0.39424378 -0.27600062 0.51323372
-14.513 38.098 1.329 0.20050009 -0.39747429 -0.30409977 0.53913146
-14.67 38.150002 1.332 0.17608851 -0.30940107 -0.16638684 0.39296407
-14.646 37.908001 1.325 0.21930905 -0.31469831 -0.20174083 0.43339458
-14.78 37.898998 1.326 0.20778628 -0.30153602 -0.17991346 0.40800485
-15.377 38.362 1.344 -0.15384652 0.15322503 -0.039161056 0.22063601
-14.148 38.560001 1.1440001 0.3330636 -0.32712016 -0.4004873 0.61508459
-14.196 38.501999 1.143 0.31721216 -0.33454844 -0.37372881 0.59348077
-14.301 38.416 1.142 0.25549048 -0.37932724 -0.34615859 0.57357681
-14.203 37.789001 1.128 0.38412231 -0.18045902 -0.28344589 0.51034987
-14.386 37.914001 1.132 0.29742217 -0.27139935 -0.23740369 0.46741638
-14.675 38.313 1.143 -0.15614036 0.48117641 -0.56845939 0.76095772
-14.674 37.952999 1.135 0.2364665 -0.33489588 -0.24134356 0.47572929
-14.758 37.816002 1.133 0.21059662 -0.2933985 -0.17401421 0.40089223
-14.886 37.792999 1.133 0.20461673 -0.30988917 -0.18535307 0.4150362
-15.228 38.481998 1.151 -0.12041883 0.29767659 -0.10578701 0.33808717
-15.216 38.102001 1.143 -0.038826093 -0.21235664 -0.049888283 0.22156635
-15.319 38.014999 1.142 -0.027005902 -0.30895856 -0.11181125 0.3296763
-15.594 38.348 1.151 -0.2081867 0.11215638 -0.046345294 0.24097437
-16.211 37.971001 1.149 -0.40324804 0.16940781 -0.21765864 0.48855221
-16.275999 37.793999 1.145 0.39516684 -0.13061495 -0.73596489 0.84549481
-16.372999 37.693001 1.1440001 0.45335159 -0.086823612 -0.61751056 0.77096385
-16.408001 37.451 1.14 -0.38209596 0.35112533 -0.44559363 0.68398827
-16.489 37.317001 1.137 0.37095371 -0.3001045 -0.51922226 0.70516741
-13.969 38.444 0.82999998 0.38474292 -0.26862413 -0.42145845 0.63072437
-14.102 38.431999 0.82999998 0.38118947 -0.26909161 -0.40762872 0.61957794
-14.18 38.272999 0.829 0.39041451 -0.24775498 -0.38876536 0.60410637
-14.409 38.518002 0.833 -0.11755771 0.49004784 -0.44877681 0.6748091
-14.112 37.188999 0.81300002 0.46916056 -0.0064615654 -0.43510279 0.63989675
-14.143 36.918999 0.80900002 0.37395757 -0.094756901 -0.78525853 0.87490231
-14.215 36.761002 0.80699998 -0.32726052 0.2345258 -0.17804587 0.44022962
-14.369 36.813999 0.80900002 -0.17063424 0.16749343 -0.052202076 0.24473485
-15.356 38.631001 0.83999997 -0.040852264 0.50525409 -0.5246892 0.72955424
-15.083 37.425999 0.82200003 -0.011217926 0.44224468 -0.74516618 0.86659032
-15.201 37.380001 0.82200003 -0.0083490368 0.45419842 -0.72271681 0.85363072
-15.655 38.153999 0.83499998 0.37400287 -0.012518908 -0.8024776 0.88544065
-15.88 38.358002 0.83899999 -0.39468801 0.3152653 -0.36515281 0.62330359
-16.055 38.438999 0.84100002 0.36769262 -0.29430914 -0.57316577 0.74184549
-16.052999 38.097 0.83700001 0.38965148 -0.25698224 -0.59563315 0.75673443
-16.112 37.738998 0.83200002 0.4570182 0.024388265 -0.64047968 0.78719413
-16.142 37.480999 0.829 0.46763769 -0.021836627 -0.59162647 0.75444263
-16.233 37.369999 0.82800001 0.43489674 -0.19260366 -0.51398098 0.70029122
-16.320999 37.250999 0.82599998 0.28131852 0.38326713 -0.62349373 0.784078
-14.287 38.404999 0.62099999 0.40771672 -0.23801218 -0.46527007 0.66284156
-14.35 38.391998 0.62099999 0.41406983 -0.22909562 -0.47695583 0.67188203
-14.446 38.280998 0.62099999 -0.26437694 0.43229553 -0.58890396 0.77690566
-14.484 38.018002 0.61799997 0.39215609 -0.25410312 -0.40441564 0.61798608
-14.574 37.897999 0.61799997 0.37170318 -0.27204067 -0.36963734 0.59059387
-14.717 37.914001 0.61799997 0.30279174 -0.31856167 -0.3014158 0.53293139
-14.529 37.084999 0.61000001 0.42311719 -0.12001933 -0.69098091 0.81907719
-14.491 36.648998 0.60500002 -0.18284443 0.32106251 -0.15297139 0.39989179
-14.71 36.862999 0.60799998 -0.010361404 0.4790971 -0.34154221 0.58846623
-14.95 37.292999 0.61299998 0.097547151 0.42417961 -0.74793774 0.8653639
-15.1 37.327 0.61400002 -0.013543797 0.45115691 -0.72931516 0.85768682
-15.235 37.321999 0.61500001 0.02799388 0.454247 -0.71731389 0.84950763
-15.729 38.188 0.625 -0.11657827 0.40696436 -0.78687149 0.89351958
-15.88 38.214001 0.625 0.40228853 -0.252583 -0.52705914 0.70952493
-15.921 37.976002 0.62300003 0.45640042 -0.10389207 -0.5885514 0.75198913
-15.989 37.804001 0.62199998 0.4587909 -0.10073087 -0.58106291 0.74717462
-15.972 37.599998 0.62 0.10646078 0.45827919 -0.67706579 0.82448274
-16.062 37.484001 0.61900002 0.45807284 0.12364405 -0.57448709 0.74508655
-16.082001 37.207001 0.61699998 0.12563121 0.47007996 -0.6177271 0.78634924
-16.153 37.051998 0.616 0.14340979 0.47320679 -0.56891382 0.75375986
-14.052 38.551998 0.336 0.46634728 -0.012103359 -0.42744514 0.63272083
-14.164 38.483002 0.336 0.4649272 -0.026067019 -0.42759508 0.63219804
-14.09 37.914001 0.33399999 0.44590706 -0.16380553 -0.46540758 0.66503352
-14.294 38.096001 0.33500001 0.4178507 -0.2216368 -0.4549022 0.65624547
-14.468 38.196999 0.336 0.44254687 -0.17268953 -0.50720978 0.69493252
-14.238 37.409 0.333 0.44510344 -0.12285686 -0.62720245 0.77884132
-14.3 37.221001 0.33199999 0.3895179 -0.2052516 -0.69796008 0.82522768
-14.491 37.368 0.333 0.40348881 -0.22655164 -0.62764263 0.77978468
-14.887 37.339001 0.33399999 -0.36922145 0.25767574 -0.24221641 0.51126319
-15.083 37.488998 0.33399999 -0.091747306 0.44623756 -0.7294125 0.8599931
-15.339 36.945999 0.333 0.10045871 0.48905945 -0.44930896 0.67167675
-15.543 37.108002 0.33399999 0.12274367 0.48649928 -0.48713249 0.69931799
-15.911 37.655998 0.336 0.14997724 0.44672781 -0.67075706 0.81974018
-15.849 36.860001 0.333 0.1159665 0.4857907 -0.46678069 0.68361175
-15.926 36.879002 0.333 0.18110406 0.45660472 -0.42489725 0.64947999
-14.413 39.548 0.141 0.45374238 -0.085113689 -0.40292752 0.61276186
-14.188 38.556999 0.14300001 0.46985403 -0.030077865 -0.47019565 0.66539568
-14.246 38.341 0.14300001 0.4556461 -0.12819119 -0.50099933 0.68923628
-14.188 37.823002 0.14399999 0.43118975 -0.20577075 -0.53258508 0.71548098
-14.301 37.761002 0.14399999 0.4199768 -0.21518642 -0.58137101 0.7487843
-14.457 37.814999 0.14399999 0.42609662 -0.19958739 -0.57646835 0.74411637
-14.491 37.375999 0.14399999 -0.38126895 0.25446576 -0.26066682 0.52731967
-14.528 37.125 0.145 -0.31978548 0.29668522 -0.22864953 0.49250937
-14.62 37.015999 0.145 -0.2639311 0.33860672 -0.21925387 0.48206472
-14.876 37.320999 0.14399999 -0.27651671 0.27484339 -0.16350284 0.42276892
-15.122 37.592999 0.14399999 -0.092213959 0.41771105 -0.2224811 0.48216572
-15.175 37.050999 0.14399999 0.035543509 0.45900565 -0.29441845 0.54647207
-15.69 37.467999 0.14399999 0.13871384 0.46567085 -0.37589496 0.61431909
-15.865 37.553001 0.14300001 0.30537328 0.3131431 -0.27505058 0.51668584
-15.954 37.437 0.14300001 0.27675864 0.27351582 -0.19865698 0.43688768
-15.968 37.146 0.14399999 0.16914068 0.42571083 -0.30322543 0.54934865
-16.143 37.229 0.14399999 0.28586784 0.35572553 -0.31547976 0.55478692
-16.309999 37.292 0.14300001 0.45159793 0.063124754 -0.35239154 0.57628572
-16.488001 37.536999 0.14300001 0.47003818 0.019131115 -0.41664904 0.62840939
-16.697001 37.692001 0.14300001 0.46979621 -0.066476353 -0.45885125 0.66005456
-14.388 39.332001 -0.124 0.38248277 0.11612118 -0.75976741 0.85850084
-14.431 39.067001 -0.122 0.44439313 0.15851609 -0.45510039 0.65553713
-14.495 39.051998 -0.122 0.44501477 0.15879208 -0.45513445 0.65604913
-14.499 38.687 -0.12 0.44923574 0.1199849 -0.60099399 0.75987029
-14.319 37.845001 -0.113 0.40041095 -0.25066826 -0.58592963 0.75264668
-14.464 37.867001 -0.114 -0.41041356 0.25350145 -0.30416811 0.57028109
-14.374 37.279999 -0.109 -0.35800773 0.26561666 -0.24469459 0.50852448
-14.528 37.330002 -0.11 -0.40820041 0.28014791 -0.34643894 0.60426021
-14.725 37.314999 -0.11 -0.3358191 0.31805781 -0.26781166 0.53447014
-14.905 37.425999 -0.112 -0.2328379 0.35906848 -0.21444935 0.47867754
-15.146 37.687 -0.114 -0.096744291 0.44367474 -0.26675624 0.52665514
-15.167 37.398998 -0.112 -0.029030908 0.44119227 -0.25064099 0.5082463
-15.236 37.231998 -0.111 0.026229316 0.47222745 -0.32303208 0.57274467
-15.307 37.073002 -0.11 0.06120389 0.46143064 -0.3086226 0.55849087
-15.395 36.957001 -0.11 0.12548858 0.47374433 -0.39463261 0.62921858
-15.796 37.587002 -0.116 0.19967949 0.38472003 -0.25328261 0.50202936
-15.824 37.487999 -0.115 0.15808924 0.40141422 -0.24583265 0.49654737
-16.121 37.533001 -0.116 0.24381553 0.38538617 -0.30657241 0.54950446
-16.200001 37.391998 -0.115 0.25804529 0.38212094 -0.32278043 0.56284189
-16.33 37.370998 -0.116 0.050541315 0.46365333 -0.30720109 0.55848128
-13.581 38.380001 -0.36500001 0.43169811 -0.18172981 -0.54089284 0.71550965
-13.695 38.319 -0.36500001 0.39208946 -0.26223534 -0.56079566 0.73279822
-13.782 38.182999 -0.36300001 0.36887485 -0.29764313 -0.56423336 0.73689848
-14.023 38.472 -0.368 0.4705447 0.0032901934 -0.55708832 0.72922599
-14.2 38.580002 -0.37099999 0.44216859 -0.12058279 -0.62956715 0.77872205
-14.193 38.192001 -0.366 0.4332611 -0.15924887 -0.623155 0.77549821
-14.426 38.449001 -0.37 -0.26755598 0.42812234 -0.40137678 0.64496374
-14.366 37.926998 -0.36300001 -0.34329826 0.31252035 -0.27452934 0.53934127
-14.409 37.861 -0.36199999 -0.31513166 0.33549669 -0.26911026 0.53318506
-14.538 37.841999 -0.36300001 -0.34552848 0.31600681 -0.27984646 0.5454945
-14.622 37.703999 -0.361 -0.33558992 0.28822231 -0.2330991 0.50002784
-14.788 37.780998 -0.36300001 -0.37225917 0.25707552 -0.2464475 0.51517093
-14.858 37.27 -0.35699999 -0.29915184 0.33593667 -0.24593955 0.51267099
-14.969 37.208 -0.35699999 -0.20136772 0.39994356 -0.24827033 0.511998
-15.597 37.903 -0.36899999 0.074731447 0.3977071 -0.19960785 0.45121947
-15.552 37.459999 -0.36300001 0.13754699 0.37502065 -0.19900817 0.44627786
-15.785 37.686001 -0.36700001 0.12832825 0.39665613 -0.22001976 0.47139466
-15.98 37.819 -0.37 0.06794288 0.4399651 -0.25957376 0.51532906
-13.997 38.448002 -0.653 -0.19546007 0.46537387 -0.45419839 0.67902404
-14.225 38.324001 -0.65200001 -0.22817649 0.4317297 -0.35627136 0.60447025
-14.357 38.308998 -0.653 -0.19673599 0.4543553 -0.37615907 0.6218034
-14.498 38.32 -0.65399998 -0.24714835 0.43763971 -0.39439964 0.63887548
-14.705 38.5 -0.65899998 -0.28343463 0.42961097 -0.46359861 0.69269365
-14.815 38.608002 -0.662 -0.26911828 0.43736389 -0.55191338 0.75387013
-14.916 38.153 -0.65399998 -0.27536359 0.41351983 -0.3599273 0.61349118
-15.104 38.277 -0.65799999 -0.17995083 0.47851473 -0.4540607 0.68376148
-15.144 38.028 -0.653 -0.16082278 0.4321644 -0.27553988 0.53717065
-15.24 37.921001 -0.65200001 -0.08263354 0.4013572 -0.19740584 0.45484611
-15.351 37.855 -0.65100002 -0.038106438 0.42075264 -0.21812654 0.47546196
-15.346 37.671001 -0.648 0.064687982 0.43073773 -0.2469005 0.50067896
-15.855 38.234001 -0.66299999 -0.099062376 0.48637196 -0.36438233 0.61574793
-15.964 38.155998 -0.662 -0.10781551 0.44792205 -0.27228975 0.53516358
-15.996 37.896999 -0.65700001 0.014973575 0.47175518 -0.30943847 0.56438398
-16.455999 38.313999 -0.66900003 -0.16644338 0.27287036 -0.098943174 0.33459136
-14.187 38.553001 -0.86699998 -0.11086831 0.49085531 -0.48188406 0.69673735
-14.309 38.509998 -0.86699998 -0.11035383 0.49223611 -0.48649997 0.70082563
-14.435 38.478001 -0.86699998 -0.17867088 0.46606165 -0.39404973 0.63593394
-14.468 38.201 -0.861 -0.25454372 0.43050119 -0.38702354 0.63238519
-14.62 38.238998 -0.86299998 -0.23961033 0.43747422 -0.37542963 0.62429494
-14.849 38.476002 -0.87099999 -0.23101763 0.45321661 -0.42186239 0.66086483
-14.921 38.480999 -0.87199998 -0.17847687 0.47405961 -0.41822779 0.65688735
-15.038 38.424999 -0.87099999 -0.17355163 0.48263338 -0.48712382 0.70735049
-15.21 38.507 -0.875 -0.18182637 0.45873031 -0.64035654 0.80842495
-15.079 37.827999 -0.85699999 -0.17455488 0.37769777 -0.20071864 0.46196643
-15.133 37.620998 -0.85299999 -0.15849675 0.40574655 -0.22999614 0.4925949
-15.153 37.333 -0.84600002 0.44193274 -0.12511267 -0.63548315 0.78408962
-15.577 38.032001 -0.86699998 -0.10159555 0.5013988 -0.53927428 0.74332976
-15.905 38.316002 -0.87699997 0.017509658 0.22588012 -0.049168557 0.23183174
-15.911 37.993 -0.86900002 0.096367151 0.38079122 -0.18426782 0.43387005
-16.011999 37.898998 -0.86799997 0.13551833 0.39077228 -0.21468484 0.4660019
-16.118999 37.820999 -0.86699998 0.08316385 0.43097442 -0.24957044 0.50491643
-16.374001 38.088001 -0.87599999 -0.14719208 0.3531909 -0.15786326 0.41392046
-16.476 37.993999 -0.875 -0.12205954 0.35901549 -0.15609837 0.41006994
-16.475 37.668999 -0.86699998 -0.12273985 0.36069971 -0.15904784 0.41287476
-14.02 38.314999 -1.102 0.025810802 0.49513957 -0.48102218 0.69080514
-14.134 38.254002 -1.101 -0.053822111 0.49640512 -0.46810362 0.68442374
-14.207 38.264999 -1.102 -0.1419879 0.47917351 -0.43579715 0.66308898
-14.352 38.287998 -1.104 -0.2038933 0.45731664 -0.40889472 0.64645642
-14.446 38.174 -1.102 -0.27924749 0.41392928 -0.38248354 0.62897557
-14.562 38.117001 -1.102 -0.29630691 0.40575111 -0.38567829 0.63338733
-14.682 38.073002 -1.102 -0.30639628 0.39506188 -0.37028381 0.62214363
-14.962 38.084 -1.105 -0.24232897 0.44232556 -0.39487183 0.64054585
-15.021 38.058998 -1.105 -0.21753554 0.4556447 -0.39896828 0.64351338
-15.385 38.625999 -1.126 0.15366976 -0.36568645 -0.21744427 0.45235273
-15.152 37.694 -1.096 -0.065069087 0.36882183 -0.15635163 0.405844
-15.154 37.359001 -1.086 0.42283082 -0.18314457 -0.63158447 0.78180993
-15.271 37.310001 -1.086 0.29129234 0.34824064 -0.303718 0.54623014
-15.297 37.042 -1.0779999 0.46562445 0.1209781 -0.45890492 0.66485757
-14.108 38.667999 -1.383 -0.0090387035 0.4962959 -0.46941453 0.68318468
-14.237 38.644001 -1.3839999 -0.033004083 0.49904665 -0.49971089 0.70699912
-14.301 38.444 -1.377 -0.19941522 0.45680127 -0.59603095 0.77697283
-14.53 38.686001 -1.3890001 -0.12782252 0.49140608 -0.52859366 0.73295963
-14.563 38.409 -1.38 -0.23471914 0.44878098 -0.58040893 0.77030641
-14.612 38.355999 -1.378 -0.24525447 0.44482809 -0.57712156 0.76882446
-14.974 37.869999 -1.3660001 0.32873261 -0.3205148 -0.35314739 0.57923049
-15.105 37.853001 -1.367 0.25255054 -0.22759013 -0.1527518 0.37270921
-15.225 37.808998 -1.367 0.18117331 -0.17975585 -0.082016259 0.26807201
-15.411 37.755001 -1.368 0.20450726 -0.10391548 -0.066997498 0.23897764
-14.31 38.611 -1.628 -0.18587475 0.46512973 -0.57636595 0.76360512
-14.437 38.583 -1.6289999 -0.21431537 0.44138947 -0.63738203 0.80437034
-14.779 38.210999 -1.619 -0.26717782 0.42577231 -0.61266798 0.79248226
-14.932 37.896 -1.608 0.33599517 -0.32028434 -0.37017965 0.59372365
-15.185 37.839001 -1.61 0.39747432 -0.18235618 -0.29961231 0.53010106
-15.482 37.720001 -1.61 0.25842822 0.210012 -0.13488495 0.35928282
