# .PCD v0.7 - Point Cloud Data file format
VERSION 0.7
FIELDS x y z normal_x normal_y normal_z curvature
SIZE 4 4 4 4 4 4 4
TYPE F F F F F F F
COUNT 1 1 1 1 1 1 1
WIDTH 172
HEIGHT 1
VIEWPOINT 0 0 0 1 0 0 0
POINTS 172
DATA ascii
-1.714 18.636999 -0.85500002 -0.042058561 -0.21279626 -0.074534923 0.22936134
-1.755 18.441 -0.84399998 -0.041023493 -0.21614604 -0.075930923 0.23273921
-1.808 18.389 -0.84200001 -0.042391289 -0.21688381 -0.076355845 0.23380722
-1.835 18.361 -0.83999997 -0.040389128 -0.21331659 -0.073836535 0.22931874
-1.897 18.402 -0.84299999 -0.04241908 -0.20948964 -0.071858227 0.22549699
-1.964 18.486 -0.84799999 -0.039106507 -0.2037403 -0.068328291 0.21842203
-2.033 18.575001 -0.85399997 -0.034103446 -0.19784448 -0.064705133 0.21093184
-2.082 18.485001 -0.84899998 -0.037237789 -0.19212033 -0.061526775 0.20513999
-2.3540001 18.545 -0.85399997 -0.049283747 -0.18932515 -0.061516196 0.20507839
-2.427 18.652 -0.861 -0.048335712 -0.19065364 -0.062434077 0.20635688
-2.4960001 18.719999 -0.86500001 -0.053784333 -0.1963181 -0.066476047 0.21413225
-2.6500001 18.753 -0.86799997 -0.060754962 -0.20423275 -0.072190672 0.22497484
-2.7219999 18.833 -0.87300003 -0.075042859 -0.22233744 -0.086358696 0.25004637
-2.7539999 18.639 -0.86199999 0.098579898 0.35577369 -0.88170922 0.95587867
-2.8169999 18.66 -0.86400002 0.09457843 0.35694426 -0.88176954 0.95596641
-2.904 18.837 -0.875 -0.091022715 -0.2146354 -0.084651172 0.24803087
-2.9449999 18.715 -0.86799997 -0.089967489 -0.22343351 -0.089798033 0.25706103
-3 18.68 -0.86699998 -0.089891493 -0.22677693 -0.091920584 0.26068687
-3.1329999 18.938999 -0.88300002 -0.091487199 -0.22593397 -0.092512876 0.26071957
-3.2490001 18.902 -0.88099998 -0.092916608 -0.2215354 -0.08974576 0.2564483
-3.7479999 19.1 -0.898 0.099296346 0.3878459 -0.85533214 0.9443925
-3.868 19.076 -0.898 0.081862338 0.39451745 -0.85302532 0.94339687
-4.2210002 19.118 -0.90399998 -0.0095508602 -0.28900594 -0.13169691 0.3177416
-4.2740002 19.073 -0.90200001 0.015284098 -0.2519713 -0.10027686 0.27162215
-4.3319998 19.052 -0.90200001 0.028898567 -0.21842654 -0.077305079 0.23349808
-4.6820002 19.059999 -0.90700001 0.1422739 -0.19218439 -0.084147483 0.25349063
-4.7160001 18.940001 -0.90100002 0.13225488 -0.19994918 -0.085225224 0.25442949
-4.7550001 18.846001 -0.89600003 0.18017595 -0.14267561 -0.072237909 0.2409108
-4.8590002 19.004999 -0.90600002 0.13142501 -0.18526472 -0.076505929 0.2396846
-5.0710001 18.728001 -0.89399999 0.23709233 -0.079597734 -0.075830519 0.26134047
-5.3639998 18.979 -0.912 0.1884805 0.30388796 -0.8862313 0.95565617
-1.534 18.211 -0.92799997 -0.028350346 -0.20682812 -0.068236828 0.21963124
-1.5880001 18.172001 -0.926 -0.03570855 -0.21476799 -0.073511213 0.22979183
-1.738 18.538 -0.949 -0.041895308 -0.21652323 -0.076524496 0.23343848
-1.747 18.326 -0.93599999 -0.040865142 -0.22398826 -0.080511451 0.24150112
-1.8 18.275 -0.93300003 -0.03895542 -0.21828018 -0.076446354 0.23453744
-1.853 18.228001 -0.93099999 -0.040270049 -0.21597604 -0.07498467 0.23214227
-1.918 18.295 -0.935 -0.041731507 -0.21044596 -0.072019279 0.22630906
-1.978 18.311001 -0.93699998 -0.038670883 -0.20913357 -0.070958555 0.22420393
-2.0309999 18.263 -0.93400002 -0.036635119 -0.20811176 -0.069985271 0.22259958
-2.089 18.261999 -0.93400002 -0.034615453 -0.2010743 -0.065684021 0.21434432
-2.1500001 18.291 -0.93699998 -0.037615858 -0.20315869 -0.067280471 0.21729028
-2.25 18.388 -0.94300002 -0.039167728 -0.19379845 -0.062419176 0.20733574
-2.3039999 18.355 -0.94199997 -0.048421025 -0.19528563 -0.064177364 0.21118666
-2.3710001 18.417 -0.94599998 -0.051056355 -0.19544969 -0.06479454 0.21214539
-2.434 18.448999 -0.94800001 -0.049833957 -0.19705899 -0.065640599 0.21359859
-2.4860001 18.398001 -0.94599998 -0.052437767 -0.20159453 -0.068458647 0.2192639
-2.5480001 18.424 -0.94800001 -0.056841277 -0.20752196 -0.072643638 0.22709776
-2.589 18.504999 -0.95300001 -0.059485853 -0.20495921 -0.071742117 0.22515279
-2.6340001 18.405001 -0.94700003 -0.067455567 -0.23376504 -0.091290057 0.25986579
-2.6949999 18.415001 -0.949 0.089548878 0.36262223 -0.87733281 0.95353383
-2.7539999 18.414 -0.949 0.091601461 0.3680656 -0.87226695 0.95116389
-2.819 18.451 -0.95200002 0.097342439 0.35944295 -0.87824154 0.95393026
-2.882 18.475 -0.954 0.096376061 0.35959747 -0.87841737 0.95405233
-2.9419999 18.482 -0.95499998 0.097820483 0.36058119 -0.87726516 0.95351028
-2.9690001 18.464001 -0.954 0.09673468 0.36351237 -0.87503707 0.95246452
-3.0469999 18.573999 -0.96200001 -0.09236902 -0.23237024 -0.096025109 0.26785964
-3.1059999 18.566999 -0.96200001 -0.090740278 -0.23296024 -0.096021533 0.26781413
-3.1600001 18.535 -0.95999998 -0.088603295 -0.23776673 -0.098796666 0.27229458
-3.2279999 18.577999 -0.96399999 -0.092417337 -0.24369456 -0.10420966 0.28069139
-3.2880001 18.576 -0.96399999 -0.093844749 -0.24105495 -0.10258698 0.27827761
-3.346 18.565001 -0.96399999 -0.096354239 -0.24273935 -0.10441214 0.28126219
-3.401 18.537001 -0.963 0.1004082 0.34821904 -0.88659763 0.95780671
-3.428 18.518 -0.96200001 0.10348823 0.35650748 -0.87922442 0.95438093
-3.4979999 18.572001 -0.96600002 0.10697091 0.37260303 -0.86491776 0.94781774
-3.5610001 18.582001 -0.96799999 0.10075687 0.37210539 -0.86704761 0.94888669
-3.6240001 18.598 -0.96899998 0.094171591 0.38191015 -0.86001951 0.94570458
-3.7060001 18.705999 -0.977 0.089628331 0.36695266 -0.8746506 0.95273352
-3.7539999 18.639999 -0.97399998 -0.06856551 -0.22420767 -0.085591137 0.24959198
-3.848 18.799999 -0.98400003 -0.061223827 -0.24562818 -0.099888921 0.27213851
-3.9059999 18.782 -0.98400003 -0.046695489 -0.20808126 -0.072448283 0.22522663
-3.924 18.723 -0.98100001 -0.042713594 -0.19055432 -0.061689734 0.20479506
-1.687 18.337999 -1.0650001 -0.038373321 -0.2199856 -0.077655137 0.2364244
-1.737 18.249001 -1.059 -0.038731012 -0.22458187 -0.080312222 0.24163435
-1.802 18.320999 -1.064 -0.038771331 -0.21647617 -0.075466007 0.23250864
-1.849 18.209999 -1.057 -0.039991245 -0.21459846 -0.074030161 0.23050438
-1.869 18.125999 -1.052 -0.040384024 -0.21589199 -0.07459107 0.23195699
-1.928 18.136999 -1.053 -0.041667521 -0.21355037 -0.073328823 0.22960196
-1.993 18.202999 -1.058 -0.036861591 -0.2086985 -0.070127398 0.22323014
-2.0550001 18.242001 -1.061 -0.034597769 -0.20847374 -0.069900602 0.22258572
-2.108 18.195999 -1.058 -0.03522671 -0.20705268 -0.068991005 0.22106898
-2.171 18.240999 -1.062 -0.035339937 -0.20313936 -0.06684795 0.216756
-2.227 18.228001 -1.061 -0.0386847 -0.20423239 -0.067777365 0.21863474
-2.253 18.198999 -1.0599999 -0.039181013 -0.20444861 -0.067876041 0.21895558
-2.352 18.530001 -1.0829999 -0.051306821 -0.19357598 -0.064062893 0.21025723
-2.4260001 18.641001 -1.091 -0.050332014 -0.19563517 -0.065384626 0.21232423
-2.4489999 18.365999 -1.073 -0.050561458 -0.19960326 -0.066945136 0.21651691
-2.5009999 18.316999 -1.0700001 -0.056679323 -0.20979013 -0.073630601 0.22944696
-2.55 18.242001 -1.0650001 -0.065396413 -0.23887235 -0.093881816 0.26485938
-2.612 18.271 -1.068 0.081049129 0.35727564 -0.88280022 0.95579869
-2.671 18.271 -1.068 0.084680974 0.36617905 -0.87471551 0.95204264
-2.6989999 18.267 -1.068 0.091622055 0.36623231 -0.87311864 0.95123965
-2.7690001 18.343 -1.074 0.092131302 0.36618143 -0.87340564 0.95153266
-2.826 18.327999 -1.074 0.095888719 0.35941425 -0.87805045 0.95359629
-2.8929999 18.379999 -1.0779999 0.096315868 0.35686779 -0.88022143 0.95468378
-2.971 18.495001 -1.087 0.099896193 0.36614218 -0.87208951 0.95109385
-3.0139999 18.395 -1.08 0.10019662 0.36896738 -0.86921537 0.94958502
-3.0799999 18.437 -1.084 0.10074217 0.36404055 -0.87343717 0.95161283
-3.145 18.465 -1.087 -0.088649131 -0.23825528 -0.09889546 0.27277198
-3.168 18.426001 -1.084 -0.088605709 -0.23838891 -0.09885776 0.27286097
-3.221 18.391001 -1.082 0.10116556 0.37354156 -0.86493659 0.94756693
-3.303 18.516001 -1.092 0.10133988 0.34533107 -0.88845456 0.9585796
-3.352 18.455999 -1.089 -0.094895944 -0.24271166 -0.10358694 0.28043616
-3.4130001 18.459999 -1.089 0.10824637 0.35519415 -0.87872034 0.9539547
-3.4719999 18.457001 -1.09 0.10997178 0.36812311 -0.86743218 0.94870806
-3.543 18.51 -1.095 0.098673142 0.36412057 -0.87412322 0.95205653
-3.5739999 18.516001 -1.095 0.10201116 0.37286854 -0.86577058 0.94815391
-3.6470001 18.583 -1.101 0.095799223 0.36754391 -0.87218082 0.95129669
-3.6960001 18.525 -1.098 -0.07296326 -0.23524353 -0.093557954 0.26346964
-3.773 18.605 -1.104 -0.062311094 -0.18396771 -0.060390383 0.20340548
-3.9219999 18.737 -1.115 -0.041397676 -0.19319326 -0.063035607 0.20739067
-4.0939999 19.108999 -1.142 -0.044115238 -0.27299872 -0.12015626 0.30151615
-4.1279998 18.976999 -1.1339999 -0.028725104 -0.21511459 -0.075448126 0.22976476
-4.2199998 19.110001 -1.1440001 -0.00030492921 -0.27312493 -0.11719203 0.29720581
-1.615 18.174 -1.143 -0.027891884 -0.20228928 -0.065386772 0.21441628
-1.677 18.218 -1.147 -0.037285682 -0.22272217 -0.078835338 0.23918694
-1.811 18.403999 -1.161 -0.041043546 -0.21384862 -0.07430163 0.23007941
-1.851 18.224001 -1.148 -0.036636166 -0.21467313 -0.07376191 0.22992951
-1.904 18.181999 -1.146 -0.040881235 -0.21170954 -0.072267413 0.22740886
-1.959 18.158001 -1.1440001 -0.038102247 -0.21282347 -0.072578937 0.22806427
-1.997 18.236 -1.15 -0.036857177 -0.20854154 -0.070112467 0.22307798
-2.0480001 18.174 -1.146 -0.035013787 -0.20861514 -0.069818348 0.22275737
-2.1070001 18.188 -1.148 -0.035228368 -0.20712483 -0.069002509 0.22114041
-2.164 18.183001 -1.148 -0.033463851 -0.20903866 -0.069978684 0.22296637
-2.23 18.240999 -1.153 -0.039293975 -0.20594791 -0.068881094 0.22068793
-2.313 18.441999 -1.168 -0.051589448 -0.19771506 -0.06617406 0.21478297
-2.352 18.288 -1.1569999 -0.050384387 -0.20121288 -0.067585826 0.21815832
-2.408 18.267 -1.156 -0.051465113 -0.20854667 -0.071993679 0.22654682
-2.444 18.320999 -1.161 -0.051283114 -0.20322189 -0.068970382 0.22064905
-2.503 18.319 -1.161 -0.056635894 -0.21296874 -0.075561732 0.23296541
-2.5580001 18.295 -1.16 -0.06577903 -0.24379973 -0.097650409 0.27074119
-2.622 18.33 -1.163 -0.067369021 -0.24961956 -0.10241184 0.27809477
-2.678 18.313999 -1.1619999 0.089756675 0.35990122 -0.87901038 0.95406729
-2.7809999 18.608999 -1.1849999 0.094842024 0.36402884 -0.87564278 0.95302796
-2.7950001 18.313 -1.164 0.09244784 0.36653101 -0.87283999 0.95117885
-2.8369999 18.393 -1.17 0.096944623 0.36022583 -0.87737572 0.95338821
-2.8900001 18.354 -1.168 0.096016027 0.35780793 -0.87940347 0.95425153
-2.9579999 18.408001 -1.1720001 0.10075467 0.36336929 -0.87385917 0.95174503
-3.0179999 18.410999 -1.173 0.1025495 0.3693445 -0.86833656 0.94917864
-3.0840001 18.445999 -1.177 0.10068946 0.36345443 -0.8739503 0.95185435
-3.145 18.458 -1.178 -0.092075706 -0.23960623 -0.10064876 0.27571589
-3.2160001 18.521 -1.184 0.10335197 0.34848469 -0.88553357 0.95723188
-3.2390001 18.483999 -1.181 0.10455804 0.34927815 -0.88446718 0.95666599
-3.29 18.431 -1.178 0.10279084 0.35679138 -0.87878191 0.95400399
-3.3699999 18.540001 -1.187 0.11016622 0.35793912 -0.87629282 0.95296705
-3.4879999 18.851 -1.211 0.11260344 0.37034944 -0.86637604 0.94891816
-3.5699999 18.962 -1.22 0.111174 0.38487238 -0.85408753 0.94337267
-3.6889999 19.26 -1.244 0.10910896 0.38403466 -0.85673493 0.94518894
-3.622 18.598 -1.1950001 0.097949341 0.36902794 -0.8704204 0.95047748
-3.6860001 18.612 -1.197 -0.077515371 -0.24757871 -0.10371828 0.2793946
-3.7049999 18.556999 -1.193 -0.071124181 -0.22705519 -0.087638468 0.25356105
-3.7709999 18.583 -1.196 -0.062246032 -0.19106853 -0.064169377 0.21094896
-3.937 18.795 -1.214 -0.046672016 -0.22152703 -0.080893368 0.24040848
-4.5900002 19.056999 -1.243 0.051643495 -0.23100179 -0.087935179 0.25251034
-4.5929999 18.937 -1.234 0.049492083 -0.20724055 -0.072004646 0.22490616
-3.0320001 18.362 -1.2920001 0.10327154 0.36583233 -0.87087762 0.95022428
-3.148 18.705 -1.321 -0.095571496 -0.2411157 -0.10344329 0.27923325
-3.1659999 18.455 -1.301 0.10465199 0.34285644 -0.88925946 0.95879352
-3.2190001 18.413 -1.299 0.10478344 0.35278514 -0.88140666 0.95515162
-3.2820001 18.434999 -1.301 0.10408571 0.35285363 -0.88158727 0.95526731
-3.3410001 18.427999 -1.301 0.10801937 0.35911754 -0.87544441 0.95238465
-3.408 18.635 -1.319 0.11603768 0.36200282 -0.87155104 0.95084804
-3.437 18.462999 -1.306 0.11335656 0.3689796 -0.86567748 0.94783604
-3.5090001 18.527 -1.312 0.11235202 0.37478986 -0.86114633 0.94586647
-3.5650001 18.507999 -1.311 0.10670467 0.38737029 -0.85106432 0.94114405
-3.622 18.490999 -1.311 0.096141294 0.36035556 -0.87771821 0.95367104
-3.707 18.612 -1.321 -0.078340881 -0.23864593 -0.097284377 0.26935744
-3.763 18.591 -1.321 -0.067555815 -0.2228228 -0.084257394 0.24761482
-3.8169999 18.705999 -1.331 -0.068427555 -0.23049529 -0.08990255 0.25669608
-3.8829999 18.726999 -1.3329999 -0.048914246 -0.20451903 -0.070355266 0.22174424
-4.381 19.157 -1.376 0.040021487 -0.28204226 -0.12703171 0.31190801
-4.441 18.867001 -1.465 0.03287521 -0.19803736 -0.064820707 0.21095331
