# .PCD v0.7 - Point Cloud Data file format
VERSION 0.7
FIELDS x y z normal_x normal_y normal_z curvature
SIZE 4 4 4 4 4 4 4
TYPE F F F F F F F
COUNT 1 1 1 1 1 1 1
WIDTH 227
HEIGHT 1
VIEWPOINT 0 0 0 1 0 0 0
POINTS 227
DATA ascii
-32.012001 21.523001 1.5140001 0.40732247 -0.08526811 -0.24141702 0.4811075
-32.136002 21.097 1.5089999 0.47040007 -0.11570203 -0.51843643 0.7095347
-32.117001 20.941 1.506 0.44228545 -0.17845286 -0.54237074 0.72223806
-32.195999 20.848 1.506 0.44624785 -0.17513546 -0.48631549 0.68287069
-32.268002 20.750999 1.506 0.39983425 -0.15047808 -0.27504563 0.50809562
-32.220001 20.577999 1.502 0.36055741 -0.13245153 -0.20605785 0.4358955
-32.414001 20.559 1.507 0.24945104 -0.067000881 -0.080707461 0.27060789
-32.311001 20.351999 1.5 0.32709092 -0.053773493 -0.13856962 0.35927927
-32.945 20.606001 1.523 -0.27669436 0.25407007 -0.14105743 0.40125874
-32.629002 20.337999 1.5089999 0.23272838 -0.057166163 -0.068351179 0.24920343
-32.941002 20.388 1.5190001 -0.19811133 0.11732964 -0.045181066 0.23463945
-33.251999 20.149 1.524 -0.20679747 0.089276493 -0.045671552 0.22982901
-32.987999 19.358 1.502 -0.13577136 0.14684902 -0.025973171 0.20167574
-33.026001 19.101999 1.499 -0.20366564 0.24649855 -0.081587613 0.32999662
-33.015999 18.959 1.497 -0.21706517 0.27928343 -0.10324663 0.36847848
-33.016998 18.820999 1.494 -0.26378414 0.34559292 -0.17744449 0.46957755
-33.046001 18.77 1.494 -0.30157208 0.24435368 -0.13577354 0.41120422
-31.625 22.395 1.273 0.49217445 -0.019672383 -0.54981458 0.73818612
-31.663 22.273001 1.272 0.48982963 -0.047506846 -0.52699792 0.72105253
-31.705999 22.155001 1.271 0.48180684 -0.08839532 -0.51134133 0.70811123
-31.802 22.073 1.272 0.47774282 -0.1059229 -0.49267 0.69439298
-32.081001 21.747999 1.274 0.43683678 -0.17927162 -0.39255041 0.61405253
-32.007 21.551001 1.2690001 0.44344893 -0.1665808 -0.39971003 0.61980981
-32.123001 21.047001 1.2640001 0.46444443 -0.13515683 -0.48219892 0.68300205
-32.18 20.941 1.2640001 0.4638381 -0.13477843 -0.46487758 0.67038959
-32.235001 20.905001 1.2640001 0.46071482 -0.13098501 -0.4242529 0.63984823
-32.381001 20.855 1.267 0.46053764 -0.14435823 -0.457109 0.66474271
-32.325001 20.676001 1.263 0.43757463 -0.12526506 -0.33086908 0.56270528
-32.554001 20.677999 1.268 0.40600687 -0.13555662 -0.26923496 0.50567245
-32.740002 20.653 1.272 -0.38356835 0.27122977 -0.27431023 0.54400033
-32.764 20.524 1.271 0.40378964 -0.13374871 -0.73271859 0.84723747
-32.978001 20.514 1.276 -0.31689778 0.21301736 -0.15128428 0.41071588
-33.083 20.507999 1.278 -0.32676315 0.27239472 -0.19932833 0.46979231
-32.396999 19.941 1.2539999 0.32141069 -0.04323712 -0.1319505 0.35012171
-32.991001 20.165001 1.271 -0.31767106 0.15773436 -0.12874672 0.37732047
-32.896999 19.966 1.266 -0.25666553 0.10840201 -0.072761953 0.28796265
-32.223999 19.417999 1.242 0.34167302 -0.02752737 -0.15213653 0.37502497
-32.713001 19.573 1.256 0.30770439 0.0020122193 -0.11125869 0.32720718
-32.897999 19.403999 1.258 -0.052152269 0.2766341 -0.056985021 0.28721693
-32.877998 19.323 1.257 -0.041640196 0.24578466 -0.040589988 0.25256988
-32.865002 19.176001 1.2539999 -0.12063576 0.23933713 -0.049655348 0.27258191
-31.884001 22.047001 1.091 0.46799797 -0.12970707 -0.45427641 0.66499102
-31.996 21.976 1.092 0.40413749 -0.22815746 -0.37075007 0.59400213
-32.241001 21.700001 1.0930001 0.44115213 -0.19650489 -0.50428247 0.6982336
-32.214001 21.608999 1.092 0.45195028 -0.1724311 -0.5182395 0.70891726
-32.365002 21.563 1.094 0.43795922 -0.12221046 -0.32160929 0.55693465
-32.277 21.358 1.09 0.46653783 -0.12288961 -0.43204433 0.64762777
-32.276001 21.212 1.0880001 0.4620496 -0.14073773 -0.45082292 0.66071039
-32.344002 21.111 1.0880001 0.43733683 -0.16201787 -0.36976898 0.59518266
-32.316002 20.948999 1.085 0.44359934 -0.1185343 -0.33753181 0.56987584
-32.550999 20.955999 1.09 0.46118191 -0.11761713 -0.39446241 0.61816108
-32.655998 20.879 1.091 0.46011445 -0.13737169 -0.57323641 0.74778092
-32.466 20.686001 1.085 0.47138149 -0.1120479 -0.45403007 0.66400188
-32.886002 20.808001 1.095 0.42625913 -0.17961183 -0.63885021 0.78872478
-33.213001 20.868999 1.102 -0.34195042 0.2877326 -0.23337352 0.50416601
-33.273998 20.761999 1.102 -0.34994298 0.32911849 -0.29287046 0.5626297
-32.970001 20.429001 1.092 -0.39526373 0.27115837 -0.29417324 0.56240392
-32.639 20.082001 1.081 0.43004835 -0.055664223 -0.26897895 0.51028401
-32.507 19.861 1.076 0.40108156 -0.030828327 -0.21892715 0.45798025
-32.396 19.724001 1.072 0.38782847 -0.075725891 -0.21760017 0.45110437
-32.599998 19.708 1.076 0.3859745 -0.079849258 -0.21396509 0.44847885
-32.622002 19.580999 1.075 0.36420643 -0.19184846 -0.26064497 0.48722476
-32.472 19.353001 1.069 0.36764604 -0.25009936 -0.36251855 0.57370114
-32.438 19.195 1.067 0.40735713 -0.12244985 -0.28461486 0.51180017
-32.678001 19.198 1.071 -0.32303712 0.43750596 -0.50594652 0.7427963
-33.133999 19.326 1.082 -0.15449858 0.3720037 -0.15066022 0.43006402
-33.417999 19.421 1.089 -0.16620207 0.3092145 -0.1067749 0.36692998
-32.028999 21.848 0.79799998 0.44435504 -0.1602799 -0.60909277 0.77080154
-32.113998 21.757999 0.79799998 0.46858647 -0.13081574 -0.4808158 0.68401015
-32.222 21.684 0.79900002 0.47497186 -0.1114525 -0.48198363 0.68580472
-32.261002 21.563 0.79799998 0.4717401 -0.12128851 -0.48309591 0.68602568
-32.544998 21.605 0.80199999 0.45153499 -0.174777 -0.52022725 0.71068084
-31.997999 21.17 0.79100001 0.47170553 -0.014323957 -0.35610089 0.59120142
-32.009998 21.033001 0.79000002 0.4465113 -0.014836788 -0.29056203 0.53293413
-32.654999 21.311001 0.801 0.44518659 -0.17725006 -0.56649107 0.7419709
-32.435001 21.021999 0.796 0.43848374 -0.19602981 -0.52633834 0.71255016
-32.611 20.990999 0.79799998 0.43581548 -0.20114997 -0.53458774 0.71845704
-32.505001 20.778999 0.79500002 0.45169047 -0.16811457 -0.52195299 0.71043766
-32.262001 20.48 0.78899997 0.37688932 -0.15309566 -0.23901898 0.47181979
-31.921 20.193001 0.78200001 0.43288147 -0.039707918 -0.28085119 0.51753306
-32.396999 20.351999 0.79000002 0.37845001 -0.1429171 -0.23363873 0.46715817
-32.388 20.205 0.78799999 0.42157289 -0.062227629 -0.25808716 0.49820173
-32.449001 20.101999 0.78799999 0.44192004 -0.02689239 -0.28409439 0.52604765
-32.388 19.923 0.78600001 0.41686484 -0.12349077 -0.29265738 0.52409405
-32.724998 19.99 0.79100001 0.44894859 -0.10243858 -0.34135818 0.5732137
-33.188999 20.131001 0.79799998 -0.34873644 0.28080896 -0.2305586 0.50361496
-33.323002 20.069 0.79900002 -0.35159326 0.32184657 -0.27917826 0.55239797
-33.627998 20.181 0.80400002 0.39841679 -0.26192427 -0.48245138 0.6783064
-33.433998 19.638 0.79799998 -0.099240519 0.52373898 -0.40470913 0.66928369
-33.426998 19.493 0.796 0.01000084 0.53836316 -0.42513615 0.68605804
-33.429001 19.354 0.79500002 0.057747915 0.52822113 -0.38487947 0.65611327
-33.424 19.211 0.79400003 0.25449216 0.47327501 -0.45338458 0.70307404
-33.396999 19.125 0.79299998 0.13341922 0.52124679 -0.41556776 0.67984957
-31.679001 21.551001 0.59399998 0.48612565 0.014523167 -0.41802335 0.64130539
-31.757999 21.459 0.59500003 0.4748899 -0.029413264 -0.37876204 0.60814989
-31.91 21.416 0.59600002 0.48496464 0.0059144609 -0.39991653 0.62861669
-32.132999 21.42 0.597 0.47716275 -0.091882572 -0.5482319 0.73258781
-32.356998 21.422001 0.59899998 0.45518285 -0.14569449 -0.58375514 0.75444573
-32.436001 21.400999 0.60000002 0.45651856 -0.14049345 -0.58760273 0.75724804
-32.696999 21.426001 0.602 0.45364442 -0.15830611 -0.56891716 0.74466157
-31.524 20.377001 0.58700001 0.23036583 -0.010544203 -0.063182443 0.23910587
-32.256001 20.705999 0.59500003 0.48981166 -0.018474944 -0.45085263 0.66597664
-32.373001 20.638 0.59500003 0.47757986 -0.091422901 -0.46913737 0.67567044
-31.865 19.964001 0.58700001 0.38262808 0.0016592517 -0.19274861 0.42843789
-31.790001 19.778 0.58600003 0.39341849 -0.080959484 -0.23379245 0.4647488
-32.035 19.792 0.588 0.3775281 -0.17033958 -0.26691893 0.49273598
-32.647999 20.028 0.59399998 0.45422536 -0.026733499 -0.3104654 0.55083948
-33.056 20.136 0.59799999 0.42475283 -0.21760386 -0.4716295 0.67097002
-32.219002 19.488001 0.588 0.35100415 -0.28822213 -0.41354117 0.61424112
-33.505001 20.121 0.602 0.38144642 -0.25592312 -0.37063378 0.59022659
-33.555 20.079 0.602 0.38448521 -0.2589967 -0.38721991 0.60402602
-33.632999 19.983 0.60299999 -0.31807867 0.42614216 -0.50903624 0.73613113
-33.717999 19.891001 0.60299999 0.012331855 0.45534039 -0.2191397 0.5054791
-33.780998 19.785 0.60299999 0.01110928 0.44711977 -0.20649275 0.49262437
-33.862 19.688999 0.60299999 0.065609582 0.5241344 -0.3843939 0.65328413
-33.868 19.551001 0.602 0.20449331 0.49910271 -0.51138002 0.74325669
-33.875 19.414 0.602 0.30065084 0.44290358 -0.46535215 0.70930046
-31.426001 20.674999 0.32499999 0.31948465 0.030506048 -0.1231795 0.34376481
-32.629002 21.320999 0.33000001 0.46416083 -0.1359413 -0.54957861 0.73209423
-32.143002 20.931 0.32800001 0.47600767 -0.059005663 -0.40087178 0.62511051
-31.693001 20.496 0.32600001 0.41069937 0.024995243 -0.22876236 0.47077695
-31.902 20.489 0.32600001 0.38215652 0.037976611 -0.18644914 0.42690644
-32.382999 20.655001 0.32800001 0.481341 -0.059859067 -0.43310136 0.65026844
-32.27 20.441 0.32699999 0.47150382 0.1518642 -0.39684471 0.63471591
-31.999001 20.128 0.32600001 0.39188048 -0.15195528 -0.26983625 0.49947205
-31.847 19.893 0.32499999 0.27086532 -0.25477016 -0.21201316 0.4280484
-31.749001 19.761999 0.32499999 0.25159782 -0.30347699 -0.25363636 0.46875489
-32.743 20.239 0.32800001 0.44560316 -0.088774495 -0.32047081 0.55600774
-32.971001 20.238001 0.329 0.34163636 -0.22000623 -0.24618497 0.47510546
-32.907001 20.056 0.32800001 0.2987904 -0.26091224 -0.23777351 0.46247935
-32.605 19.732 0.32699999 -0.14081092 0.509377 -0.61103874 0.80787432
-32.429001 19.486 0.32600001 -0.16292086 0.50721627 -0.60666305 0.80737329
-33.34 19.892 0.329 0.36330593 -0.14968064 -0.21440545 0.4476217
-33.478001 19.832001 0.329 0.22081482 -0.36370787 -0.30599183 0.52409315
-32.036999 21.084 0.147 0.036691207 0.46638274 -0.74989331 0.88385463
-31.893999 20.847 0.147 0.089875624 0.25863025 -0.060733825 0.28045648
-32.035999 20.797001 0.147 0.43519133 -0.14846404 -0.64456338 0.791767
-32.818001 21.157 0.146 0.49073341 -0.042569783 -0.51906276 0.71558201
-32.362999 20.792 0.147 0.44984749 -0.16000248 -0.43118736 0.64333981
-31.693001 20.222 0.148 0.48355362 0.044210546 -0.42101535 0.64267612
-32.946999 20.875999 0.146 0.4604167 -0.14360052 -0.44129378 0.65371621
-32.905998 20.705999 0.146 0.46703759 -0.13357289 -0.47942075 0.68250281
-32.834 20.516001 0.146 0.40527034 -0.24893829 -0.47096208 0.6693427
-32.976002 20.461 0.146 0.38149098 -0.28102016 -0.48305729 0.67664766
-32.901001 20.271999 0.147 0.43535742 -0.091415338 -0.29777601 0.53531617
-33.173 20.368 0.146 0.34631896 -0.31525594 -0.44273904 0.64446956
-32.832001 20.017 0.147 0.33805653 -0.22235781 -0.24513096 0.47309026
-32.501999 19.537001 0.148 -0.17229883 0.50706881 -0.58212805 0.79099858
-32.650002 19.486 0.148 -0.1267435 0.51745123 -0.59976166 0.80220556
-32.773998 19.421 0.147 -0.17323965 0.49320132 -0.63712841 0.82413113
-32.841999 19.322001 0.147 -0.23354791 0.46788403 -0.6324203 0.82061899
-33.054001 19.377001 0.147 -0.10037047 0.48017657 -0.72216529 0.87302148
-32.294998 21.556999 -0.1 0.37892425 0.22015366 -0.76136768 0.87848276
-32.293999 21.41 -0.1 0.41747522 0.21003811 -0.7027508 0.84395516
-32.518002 21.412001 -0.101 0.48498568 0.083945245 -0.59350044 0.77103871
-32.589001 21.166 -0.1 0.49563974 0.0083143897 -0.50347751 0.70655322
-32.723999 21.108 -0.101 0.49300027 0.0014431812 -0.54705024 0.73642063
-31.705999 20.309999 -0.090999998 0.39589477 -0.013417244 -0.78530878 0.87955815
-32.686001 20.867001 -0.1 0.48495138 -0.05538626 -0.44660127 0.6615876
-31.433001 19.927 -0.086999997 0.39187354 -0.24809971 -0.53609425 0.70888317
-31.398001 19.766001 -0.086999997 0.40206698 -0.23193805 -0.480203 0.66786826
-32.091999 20.063 -0.092 0.48123914 -0.018162899 -0.58171242 0.75518894
-32.110001 19.934999 -0.092 0.45366779 -0.10566388 -0.62096095 0.77625501
-31.952 19.697001 -0.090000004 -0.32127488 0.41880983 -0.38356358 0.65248775
-31.884001 19.517 -0.089000002 -0.25964421 0.46780509 -0.39909065 0.66748041
-31.806999 19.333 -0.088 -0.25892386 0.48082694 -0.47419074 0.7232517
-32.658001 19.780001 -0.094999999 0.15073803 -0.25676325 -0.12776712 0.32399654
-32.555 19.579 -0.093999997 -0.18518545 0.46918964 -0.68631005 0.85173595
-32.507 19.410999 -0.093000002 -0.17590737 0.47109392 -0.69433576 0.85730684
-32.403999 19.211 -0.090999998 -0.19371779 0.51078826 -0.50918359 0.74679255
-33.228001 19.559999 -0.097999997 -0.040006809 0.48539475 -0.72600114 0.87423468
-33.307999 19.466 -0.097999997 -0.046639889 0.50296432 -0.68749034 0.85310692
-33.312 19.327999 -0.097999997 -0.038497273 0.53132707 -0.60458189 0.80579764
-33.272999 19.236 -0.097000003 -0.055056915 0.53217971 -0.59723425 0.80183244
-33.348999 19.139999 -0.097000003 -0.013939955 0.54146379 -0.56083316 0.77968657
-32.491001 21.160999 -0.338 0.45810488 0.1124776 -0.67351449 0.82227308
-32.501999 21.023001 -0.33700001 0.38894656 0.012392592 -0.80665398 0.89561355
-32.354 20.497999 -0.331 0.19848301 -0.015856575 -0.044951469 0.20412636
-32.549 20.478001 -0.333 0.4477765 0.0090332329 -0.28662091 0.53173012
-31.719999 19.888 -0.31900001 -0.39891607 0.18654318 -0.21710822 0.49098712
-31.913 19.868999 -0.32100001 -0.38295716 0.20676938 -0.2087813 0.48270011
-32.698002 20.215 -0.333 0.32750237 0.053981714 -0.12437791 0.3544597
-32.630001 20.032 -0.331 0.21307519 0.045423236 -0.048256099 0.22314337
-32.452999 19.643 -0.32600001 -0.16830844 0.29074594 -0.096237302 0.34946036
-32.428001 19.49 -0.32499999 -0.21314158 0.48439988 -0.38630503 0.65521306
-32.346001 19.371 -0.32300001 -0.20687525 0.48977834 -0.38700065 0.65760911
-32.500999 19.326 -0.324 -0.17260121 0.47738805 -0.31236428 0.59603858
-33.199001 19.599001 -0.33500001 -0.18701749 -0.12765902 -0.065375239 0.23568259
-32.957001 19.316999 -0.33000001 -0.11005061 0.49704742 -0.68058705 0.84992117
-32.955002 19.177 -0.329 -0.12036333 0.52869833 -0.54738665 0.77048129
-32.98 19.054001 -0.32800001 -0.058212698 0.53166121 -0.60450155 0.80713969
-33.877998 19.43 -0.34200001 0.30584338 0.4383063 -0.47933635 0.71792471
-34.002998 19.360001 -0.34299999 0.3308543 0.41597411 -0.44777119 0.69498062
-32.278 21.108999 -0.60399997 0.30327785 0.19380675 -0.85957623 0.93188506
-32.389999 21.110001 -0.60600001 0.34418079 0.13449928 -0.84326851 0.92068034
-32.695999 21.018 -0.61000001 0.4799284 0.11323699 -0.59945679 0.77621025
-32.618999 20.823999 -0.60600001 0.43459436 0.055622973 -0.73748398 0.85781628
-32.647999 20.555 -0.60399997 0.4624593 0.16021372 -0.36485919 0.61045825
-32.272999 20.177 -0.59299999 -0.20862798 0.06974934 -0.042526811 0.22405164
-32.319 19.993999 -0.59200001 -0.10859721 0.19014859 -0.032589763 0.22138639
-32.179001 19.768 -0.58700001 -0.26248616 0.19306313 -0.095898777 0.33966002
-32.148998 19.610001 -0.58499998 -0.21643765 0.26866817 -0.10299921 0.36005095
-33.318001 20.181 -0.61199999 -0.25984871 0.24909174 -0.12472555 0.38095212
-33.686001 20.26 -0.61900002 -0.31570649 0.14127515 -0.12393317 0.36740807
-33.686001 20.115999 -0.61799997 -0.37324142 0.11458345 -0.17323908 0.42714202
-33.347 19.771 -0.60799998 -0.24110375 0.069832064 -0.060019016 0.2580888
-32.827 19.254999 -0.59299999 -0.16755489 0.49802664 -0.36733091 0.6411218
-33.500999 19.509001 -0.60799998 0.33604428 0.12296204 -0.85817486 0.92979002
-33.583 19.416 -0.60799998 -0.25980964 0.080100015 -0.072250634 0.28131339
-33.592999 19.281 -0.60699999 -0.25666472 0.079831436 -0.069963306 0.27774936
-33.576 19.131001 -0.60500002 -0.27636668 0.003215231 -0.082605124 0.28846574
-33.668999 19.044001 -0.60600001 -0.17156681 0.15413983 -0.040405899 0.23415144
-32.398998 20.528999 -0.796 -0.29221362 -0.0025964975 -0.091404051 0.30618662
-32.564999 20.490999 -0.79900002 -0.29953894 0.0057659596 -0.096369952 0.31471255
-32.097 20.056 -0.78200001 -0.15328149 0.13950965 -0.030815274 0.20954174
-32.325001 19.778 -0.78399998 -0.14920861 0.17189917 -0.037702143 0.23072492
-33.68 20.533001 -0.824 -0.20224024 0.18133923 -0.064144254 0.27910486
-33.779999 20.448999 -0.82499999 -0.2158026 0.069023848 -0.048490077 0.23170313
-33.858002 20.351 -0.82499999 -0.22062789 0.079661831 -0.051609963 0.24017964
-33.775002 20.013 -0.81900001 -0.21494198 0.13698062 -0.057303548 0.26124212
-33.846001 19.912001 -0.81900001 -0.22478448 0.11955065 -0.058806211 0.26130173
-33.952 19.830999 -0.82099998 -0.24187651 0.10984282 -0.066403925 0.27382326
-32.858002 19.124001 -0.787 -0.1471016 0.52177405 -0.45096278 0.7051627
-33.841 19.552999 -0.81400001 -0.32180515 0.11848033 -0.12346631 0.3644723
-33.826 18.981001 -0.80699998 -0.13707171 0.22000888 -0.049136579 0.26383132
-34.153999 19.958 -1.062 -0.21968099 0.16038759 -0.066367596 0.27997962
-34.292999 19.895 -1.0650001 -0.2940065 0.16726273 -0.11601156 0.35759661
