# .PCD v0.7 - Point Cloud Data file format
VERSION 0.7
FIELDS x y z normal_x normal_y normal_z curvature
SIZE 4 4 4 4 4 4 4
TYPE F F F F F F F
COUNT 1 1 1 1 1 1 1
WIDTH 138
HEIGHT 1
VIEWPOINT 0 0 0 1 0 0 0
POINTS 138
DATA ascii
22.93 -11.013 1.069 0.42228246 -0.24156342 -0.70394117 0.85569185
22.954 -10.936 1.069 -0.36880904 0.15582237 -0.24313301 0.4684169
23.01 -10.874 1.0700001 -0.35763776 0.15913454 -0.22973543 0.45387989
23.056 -10.808 1.0700001 -0.37888667 0.16761844 -0.26922029 0.49409574
23.152 -10.764 1.072 -0.37803972 0.17242502 -0.27220994 0.496732
23.478001 -9.8570004 1.0700001 0.10501214 -0.18668681 -0.026448965 0.21582183
23.358 -9.7209997 1.0650001 0.075815678 -0.20189573 -0.026120186 0.21723758
23.398001 -9.651 1.0650001 0.083358936 -0.20524062 -0.028426737 0.22333944
23.556999 -9.6730003 1.0700001 0.13518535 -0.27495706 -0.069822639 0.31424776
24.478001 -9.9610004 1.103 -0.081679523 0.43610102 -0.57456613 0.72593516
24.108999 -9.7229996 1.0880001 -0.15208194 0.39938098 -0.64985287 0.77778071
24.327 -9.7220001 1.095 -0.095578507 0.43331581 -0.57782102 0.72854304
24.149 -9.5629997 1.087 -0.091840863 0.4380666 -0.55154586 0.71030974
24.219999 -9.5030003 1.089 -0.074252196 0.44149098 -0.55154353 0.71037167
25.02 -9.6800003 1.1160001 0.16644755 0.41688195 -0.58080888 0.73405331
24.225 -9.2860003 1.086 -0.044536516 0.44690397 -0.54285485 0.70455521
24.195999 -9.1879997 1.084 -0.022191726 0.45078868 -0.51097465 0.68176097
24.503 -9.217 1.094 0.085840069 0.44178024 -0.43624651 0.62677693
23.099001 -10.827 0.91000003 -0.37887171 0.16771215 -0.26922992 0.49412131
23.150999 -10.763 0.91000003 -0.37799504 0.17251015 -0.27221817 0.49673206
23.214001 -10.704 0.91100001 -0.37601534 0.17466538 -0.27080801 0.49520954
23.157 -10.589 0.90799999 0.21979532 -0.14863449 -0.054828584 0.27093977
23.164 -10.373 0.90600002 0.20029879 -0.1459846 -0.045559883 0.25200558
23.48 -10.163 0.912 0.13051124 -0.1501473 -0.02302745 0.20026897
23.483 -10.12 0.91100001 0.13116792 -0.16012886 -0.025429726 0.20854963
23.493999 -10.038 0.91100001 0.1954173 -0.23312396 -0.071530879 0.31249219
23.566 -9.9809999 0.912 0.20298417 -0.27423221 -0.0953767 0.35426345
23.704 -9.9519997 0.91500002 0.2457612 -0.33773366 -0.16513497 0.449146
23.608 -9.8240004 0.91100001 0.20627549 -0.3357726 -0.13866314 0.41775626
23.792 -9.8140001 0.91600001 0.25178593 -0.42022473 -0.2673288 0.55807674
23.686001 -9.6829996 0.912 0.24908596 -0.4123694 -0.25278467 0.54405189
24.334 -9.9040003 0.93099999 -0.10992604 0.43623793 -0.50913286 0.67941415
24.299 -9.8000002 0.92900002 -0.081566654 0.44099605 -0.53682172 0.69950569
24.524 -9.802 0.93400002 -0.031862743 0.44875112 -0.51237643 0.68185222
24.847 -9.8409996 0.94300002 0.092612013 0.44205219 -0.52582401 0.69316524
24.360001 -9.559 0.92799997 -0.053324062 0.44708151 -0.51611805 0.68491107
23.112 -10.452 0.78600001 0.20036426 -0.14610708 -0.045546234 0.25212613
23.014999 -10.365 0.78299999 0.20049764 -0.14590415 -0.04556486 0.25211799
24.139999 -10.104 0.80400002 0.16757545 0.17905837 -0.083170682 0.25896099
23.9 -9.9160004 0.79799998 -0.20996997 0.37996492 -0.6319716 0.76671302
24.197001 -9.9499998 0.80400002 -0.14749943 0.42487228 -0.52612495 0.69215602
24.344999 -9.8319998 0.80599999 -0.087609731 0.44077286 -0.52296972 0.68953139
24.358 -9.7930002 0.80599999 -0.10007998 0.43839049 -0.52205825 0.68901891
24.829 -9.8909998 0.81699997 0.095050029 0.44223133 -0.50847876 0.68055397
24.903 -9.8299999 0.81800002 0.19480596 0.41349754 -0.50105751 0.67822433
24.344 -9.8109999 0.60699999 -0.093127012 0.44048858 -0.50072676 0.67337221
24.445 -9.7629995 0.60799998 -0.037534103 0.44865543 -0.49016103 0.66555119
24.874001 -9.8439999 0.61500001 0.016081546 0.44999182 -0.47760591 0.65639824
24.783001 -9.7629995 0.61299998 0.081299722 0.44476405 -0.47892639 0.65863132
24.319 -9.8730001 0.472 -0.099297278 0.43903989 -0.50585961 0.67713362
24.318001 -9.783 0.472 -0.054454044 0.44693035 -0.50250697 0.67470384
24.749001 -9.8660002 0.47600001 0.020154843 0.44999206 -0.47802606 0.65681654
24.466999 -9.665 0.47299999 -0.023219377 0.45011026 -0.49992132 0.67309713
24.48 -9.5810003 0.47299999 -0.0089973733 0.45099229 -0.49408346 0.66902423
24.257999 -9.8809996 0.289 -0.047680482 0.44738907 -0.48280489 0.65994769
24.254999 -9.8360004 0.289 -0.030203646 0.44904703 -0.48155537 0.65912902
24.445 -9.8240004 0.28999999 -0.001753137 0.45034015 -0.48101047 0.65892363
24.712 -9.8409996 0.29100001 -0.021840267 0.44909331 -0.46955928 0.65011364
24.375999 -9.6190004 0.289 -0.019230645 0.45051539 -0.50589108 0.67768705
24.371 -9.5279999 0.289 0.026493564 0.45106828 -0.5030542 0.67618638
24.347 -9.4300003 0.289 0.033240512 0.45102286 -0.49804765 0.67273921
24.566999 -9.427 0.28999999 0.019131733 0.45158795 -0.49748409 0.67215186
24.423 -9.8809996 0.16599999 -0.021837108 0.44901344 -0.46937981 0.64992869
24.426001 -9.8380003 0.16599999 -0.02196057 0.44910342 -0.46989202 0.650365
24.775999 -9.8879995 0.16500001 -0.011158708 0.44866511 -0.45664668 0.64027423
24.868999 -9.8339996 0.16500001 -0.0032989308 0.45001024 -0.47154912 0.65182716
24.495001 -9.5979996 0.16599999 -0.0084241647 0.45076492 -0.47870943 0.65758854
24.52 -9.5190001 0.16599999 -0.015535619 0.4510487 -0.50143522 0.6746285
24.688999 -9.4960003 0.16500001 -0.0081171505 0.45110288 -0.48056802 0.65917015
24.367001 -9.8470001 -0.001 -0.042045746 0.44780007 -0.47356856 0.65311557
24.405001 -9.7740002 -0.001 -0.042578124 0.44792357 -0.47340763 0.65311807
24.42 -9.7349997 -0.001 -0.039036889 0.44818228 -0.4698602 0.65050739
24.326 -9.6090002 -0 -0.05853378 0.44649336 -0.47450769 0.65417129
24.436001 -9.5640001 -0.001 -0.00072818808 0.45042759 -0.46503255 0.64741087
24.591 -9.5360003 -0.0020000001 0.00011056429 0.4506855 -0.46844205 0.65004259
24.372 -9.9029999 -0.163 -0.036174338 0.44879189 -0.49130943 0.66641408
24.357 -9.8079996 -0.163 -0.038160108 0.44875655 -0.48672903 0.66313177
24.257999 -9.6800003 -0.161 0.013815692 0.45089683 -0.48072168 0.65923607
24.438999 -9.6630001 -0.163 0.0034046567 0.4510197 -0.48053926 0.65905112
24.346001 -9.5380001 -0.161 0.066142246 0.4467169 -0.46012768 0.64470792
24.367001 -9.5019999 -0.161 0.078643955 0.4435108 -0.44306552 0.63181782
24.396 -9.4250002 -0.161 0.10585104 0.43743289 -0.43009588 0.62252265
25.111 -9.6099997 -0.171 -0.00047643948 0.45136124 -0.4974232 0.67168224
24.452 -9.927 -0.34799999 -0.061715782 0.44594148 -0.48960182 0.66511846
24.444 -9.8339996 -0.347 -0.059872855 0.44620588 -0.48174912 0.6593684
24.344999 -9.7049999 -0.34400001 -0.030230565 0.44847542 -0.46038124 0.64342439
24.474001 -9.6680002 -0.347 -0.052148346 0.44573349 -0.45143241 0.63654459
24.662001 -9.6529999 -0.34999999 0.013758015 0.44697165 -0.43136355 0.62132716
24.582001 -9.533 -0.34799999 -0.030076582 0.44459736 -0.42204082 0.61375064
25.205 -9.7299995 -0.361 -0.040110771 0.44891003 -0.50863248 0.67958522
24.458 -9.8950005 -0.48300001 -0.15657163 0.42161298 -0.45764303 0.64164579
24.469999 -9.8109999 -0.48300001 -0.15611739 0.42231402 -0.46155113 0.64478773
24.431999 -9.7510004 -0.48100001 -0.17936002 0.41303265 -0.45308983 0.63879293
24.535 -9.7030001 -0.48300001 -0.1256983 0.42915776 -0.43398425 0.62315232
24.746 -9.6960001 -0.48800001 -0.08569172 0.43409115 -0.40595469 0.60048097
25.094999 -9.7419996 -0.49700001 -0.2567108 0.37536061 -0.46731859 0.65206033
25.183001 -9.6850004 -0.49900001 -0.23786467 0.38664567 -0.46748239 0.65162432
25.07 -9.5509996 -0.495 -0.22691976 0.39028177 -0.44115251 0.63121152
24.451 -9.8789997 -0.63999999 -0.20583346 0.39832351 -0.43018246 0.62135816
24.438999 -9.7849998 -0.63800001 -0.2202733 0.39167199 -0.43215841 0.62344861
24.503 -9.7220001 -0.639 -0.20600903 0.39955384 -0.43671864 0.62674248
24.778999 -9.7419996 -0.648 -0.17278862 0.40519875 -0.38921583 0.58781874
24.815001 -9.7110004 -0.64899999 -0.17417623 0.4043135 -0.38745022 0.5864507
24.533001 -9.8699999 -0.815 -0.23520231 0.3752428 -0.39080429 0.59063971
24.538 -9.7819996 -0.81400001 -0.24162196 0.37294424 -0.39583513 0.59510839
24.57 -9.7060003 -0.81400001 -0.23019999 0.38131303 -0.40332156 0.60088265
24.709 -9.6709995 -0.81900001 -0.18065457 0.40023991 -0.38170132 0.58182812
24.76 -9.6009998 -0.81999999 -0.18156217 0.40000039 -0.38146505 0.58179092
24.757999 -9.5559998 -0.81900001 -0.18160088 0.40010303 -0.38147554 0.58188051
24.649 -10.021 -0.98000002 -0.29436311 0.24774809 -0.23093835 0.44873297
24.622 -9.9200001 -0.977 -0.24757025 0.34333536 -0.3208676 0.53115553
24.556999 -9.8039999 -0.972 -0.24287121 0.35828558 -0.34963208 0.55641496
24.577999 -9.724 -0.972 -0.23388925 0.36930618 -0.36594364 0.57009298
24.559 -9.6269999 -0.97000003 -0.23024993 0.37532812 -0.3783721 0.58056152
24.552999 -9.5360003 -0.96799999 -0.21556349 0.38140091 -0.37122989 0.57423508
24.533001 -9.4390001 -0.96600002 -0.24481715 0.25735188 -0.19217932 0.40385434
24.816 -9.5039997 -0.97799999 -0.22511002 0.31884959 -0.24950267 0.46323988
23.787001 -10.172 -1.095 -0.22668166 0.19162591 -0.12757039 0.32307783
23.879999 -10.167 -1.1 -0.26569793 0.23229592 -0.18797553 0.39986444
23.747999 -10.023 -1.091 -0.23198238 0.16993135 -0.11750454 0.31064418
23.993 -10.037 -1.102 -0.27827987 0.23645036 -0.20320329 0.41789955
23.951 -9.9309998 -1.098 -0.27814943 0.23296015 -0.19959232 0.41409495
23.965 -9.849 -1.097 -0.23983276 0.13114238 -0.10219589 0.29182541
24.046 -9.7939997 -1.1 -0.27096722 0.14203803 -0.1287668 0.3319321
24.079 -9.7189999 -1.1 -0.25497568 0.12584515 -0.10945824 0.3046813
24.09 -9.6800003 -1.1 -0.25987229 0.11513385 -0.10818449 0.3041271
24.046 -9.5749998 -1.096 -0.24342209 0.073276773 -0.082703024 0.26732674
24.108 -9.5120001 -1.098 -0.24085188 0.074716821 -0.081545562 0.2650319
24.171 -9.4490004 -1.1 -0.24581473 0.086887248 -0.088328004 0.2752746
24.198999 -9.3719997 -1.099 -0.18760663 0.130779 -0.073443621 0.24019442
24.305 -9.3260002 -1.104 -0.1957023 0.12328003 -0.074052304 0.24286024
24.332001 -9.2480001 -1.104 -0.12848151 0.15712033 -0.062233686 0.21229067
24.549 -9.1990004 -1.113 -0.076591417 0.17982748 -0.060223877 0.20452648
24.677 -9.158 -1.118 -0.081578352 0.17489706 -0.058625549 0.20169522
24.826 -9.125 -1.125 -0.095430501 0.21939811 -0.08724165 0.25466374
24.943001 -9.0790005 -1.1289999 -0.056392033 0.20546019 -0.070813686 0.22451845
25.129 -9.0570002 -1.138 -0.041806351 0.21413955 -0.074083775 0.23041685
25.475 -9.0909996 -1.155 0.011083378 0.21545357 -0.072241306 0.22751239
