# .PCD v0.7 - Point Cloud Data file format
VERSION 0.7
FIELDS x y z normal_x normal_y normal_z curvature
SIZE 4 4 4 4 4 4 4
TYPE F F F F F F F
COUNT 1 1 1 1 1 1 1
WIDTH 177
HEIGHT 1
VIEWPOINT 0 0 0 1 0 0 0
POINTS 177
DATA ascii
-26.957001 53.919998 -1.059 0.52487957 -0.05817613 -0.50880247 0.73332328
-27.028999 53.641998 -1.054 0.52013034 -0.10283743 -0.49190819 0.72324598
-27.091 53.348 -1.05 0.50234294 -0.17721444 -0.51064193 0.73790824
-27.139999 53.028999 -1.044 0.46956563 -0.25500754 -0.52099264 0.74629354
-27.113001 52.772999 -1.039 0.43600023 -0.31078351 -0.5200094 0.74638623
-27.216 52.564999 -1.036 -0.25715193 0.38219291 -0.45629987 0.64838886
-27.422001 52.558998 -1.038 -0.1293121 0.44837177 -0.47949648 0.66908574
-27.681 52.652 -1.0420001 -0.064011477 0.46522114 -0.47433606 0.66747499
-27.906 52.678001 -1.045 0.037916802 0.47402427 -0.49017906 0.68294376
-28.129999 52.699001 -1.0470001 0.098126411 0.46894217 -0.48740727 0.68344814
-28.360001 52.73 -1.05 0.10113235 0.46859127 -0.48900387 0.68478489
-28.587 52.755001 -1.053 0.097660571 0.46906722 -0.48730019 0.68339092
-28.732 52.824001 -1.056 0.10297775 0.46949971 -0.48608097 0.68360007
-28.962999 52.853001 -1.059 0.10242129 0.46962532 -0.48702806 0.68427652
-29.195 52.881001 -1.061 0.10185613 0.46991846 -0.48870844 0.68559021
-29.424999 52.903999 -1.064 0.10252028 0.46983239 -0.48960319 0.68626833
-29.657 52.93 -1.067 0.099606521 0.47030696 -0.49117225 0.68728471
-29.893 52.960999 -1.0700001 0.097903304 0.47059277 -0.49369135 0.68903828
-30.129 52.990002 -1.073 0.095110923 0.4714272 -0.49287525 0.6886332
-30.278999 53.058998 -1.076 0.098387852 0.47097349 -0.49318439 0.68900442
-30.518999 53.091999 -1.079 0.10023598 0.47069547 -0.49499214 0.69037575
-30.745001 53.098 -1.081 0.097827025 0.47110641 -0.49965018 0.69365817
-27.014999 53.937 -1.368 0.52613115 -0.03752365 -0.48757666 0.71829867
-27.070999 53.626999 -1.362 0.52218032 -0.092160344 -0.49172455 0.7231589
-27.127001 53.321999 -1.355 0.50289369 -0.17697376 -0.48862997 0.72317427
-27.191999 53.035999 -1.35 0.47130847 -0.25271544 -0.49588796 0.72931588
-27.242001 52.726002 -1.3430001 -0.30956286 0.34526074 -0.50063699 0.6824013
-27.361 52.549999 -1.34 -0.17499372 0.43177634 -0.49577132 0.68032551
-27.499001 52.612999 -1.3430001 -0.10260534 0.45777714 -0.50042748 0.68594128
-27.738001 52.666 -1.348 -0.037445366 0.47073591 -0.49648884 0.68519753
-27.962999 52.692001 -1.351 0.044771038 0.47435677 -0.4990913 0.69000793
-28.184999 52.709999 -1.354 0.099100888 0.46944487 -0.50009179 0.69303048
-28.414 52.738998 -1.358 0.10102482 0.46962124 -0.49997842 0.6933459
-28.643999 52.766998 -1.3609999 0.099847846 0.47025582 -0.49908489 0.69296163
-28.875999 52.799999 -1.365 0.10013681 0.47008619 -0.49900925 0.69283378
-29.016001 52.856998 -1.368 0.098550633 0.47051963 -0.49693817 0.69141054
-29.254999 52.896999 -1.372 0.098865524 0.47047448 -0.500121 0.69371581
-29.482 52.915001 -1.375 0.098502994 0.47052526 -0.50098312 0.6943205
-29.714001 52.938999 -1.378 0.099165142 0.47080779 -0.50250572 0.69570518
-29.950001 52.969002 -1.382 0.099128149 0.47079387 -0.50454235 0.69716299
-30.187 53 -1.386 0.10095099 0.47053331 -0.50574005 0.69811583
-30.424 53.026001 -1.39 0.095188767 0.47139418 -0.50995451 0.70094717
-30.665001 53.060001 -1.393 0.092408866 0.47167724 -0.51635897 0.70543987
-30.820999 53.136002 -1.397 0.048655421 0.47634748 -0.52481461 0.71042567
-31.055 53.154999 -1.401 0.029368568 0.47739053 -0.525006 0.71020812
-31.299999 53.188999 -1.405 -0.0061715515 0.47679251 -0.53186846 0.71432012
-31.540001 53.215 -1.408 -0.10410248 0.46399346 -0.50890952 0.6965028
-26.929001 53.854 -1.723 0.52045149 -0.096555471 -0.48873183 0.72045231
-26.996 53.566002 -1.716 0.51964253 -0.10467524 -0.48905787 0.72122318
-27.046 53.247002 -1.707 0.49943694 -0.18374607 -0.47345033 0.71228862
-27.093 52.929001 -1.699 0.44427666 -0.29727155 -0.47701156 0.71644408
-27.291 52.498001 -1.689 -0.14939414 0.4426617 -0.51895392 0.69827008
-27.542 52.577 -1.6950001 -0.081699967 0.46266767 -0.51797462 0.69930965
-27.768999 52.606998 -1.7 0.0086306818 0.47474629 -0.50923342 0.69625944
-27.908001 52.671001 -1.704 0.043762341 0.47556666 -0.50141954 0.69245964
-28.134001 52.695999 -1.7079999 0.099550463 0.47018912 -0.50921619 0.70020658
-28.361 52.722 -1.712 0.10240115 0.46974283 -0.50985676 0.70078403
-28.587 52.744999 -1.716 0.1021608 0.46978986 -0.5094052 0.70045203
-28.816 52.771 -1.72 0.10178977 0.46989951 -0.50884962 0.70006758
-29.055 52.813 -1.725 0.10036633 0.4701708 -0.50762558 0.69915497
-29.280001 52.830002 -1.729 0.097866476 0.470568 -0.50622618 0.69805229
-29.427 52.898998 -1.733 0.097174063 0.47100577 -0.50921708 0.70042223
-29.662001 52.929001 -1.738 0.098359272 0.47080711 -0.51032132 0.70125729
-29.903 52.967999 -1.742 0.10035899 0.4705281 -0.50935864 0.70065314
-30.129 52.979 -1.7460001 0.099875271 0.47065836 -0.50832593 0.69992113
-30.368999 53.013 -1.751 0.10025743 0.47060886 -0.50794274 0.69966424
-30.604 53.036999 -1.756 0.096166037 0.47142315 -0.50926793 0.7006008
-30.843 53.064999 -1.76 0.049528629 0.47692701 -0.50312179 0.69501364
-31.007999 53.155998 -1.765 0.033746041 0.4777647 -0.50167888 0.69359905
-24.573999 59.626999 -2.2820001 0.073318101 0.49813917 -0.57315326 0.76290423
-24.801001 59.645 -2.286 -0.026729256 0.49489397 -0.54758972 0.7385723
-25.024 59.652 -2.29 -0.084782615 0.47993127 -0.54370177 0.73016006
-25.261 59.689999 -2.2950001 -0.12562206 0.46752432 -0.53824383 0.72392428
-25.455 59.625 -2.2950001 -0.11871105 0.4709146 -0.53608602 0.72335404
-25.530001 59.285999 -2.2839999 -0.18984373 0.4362224 -0.5392133 0.71908385
-25.648001 59.303001 -2.2869999 -0.19335338 0.43328965 -0.51549804 0.70061666
-25.874001 59.313999 -2.2909999 -0.27369854 0.37637597 -0.52710897 0.7031455
-26.108999 59.344002 -2.2950001 -0.28409687 0.36622092 -0.51806992 0.69514406
-26.267 59.198002 -2.293 0.39055765 -0.38247293 -0.48757151 0.73249358
-26.329 58.837002 -2.2809999 0.46954012 -0.28100109 -0.43644273 0.69993699
-26.379 58.456001 -2.2679999 0.51908761 -0.14922413 -0.39243099 0.66762406
-26.445 58.113998 -2.257 0.53651071 -0.090169325 -0.43996182 0.6996718
-26.405001 57.786999 -2.2449999 0.53811193 -0.065395832 -0.43336564 0.69400781
-26.476999 57.466 -2.2349999 0.5382604 -0.070923656 -0.43853787 0.69790393
-26.535999 57.122002 -2.224 0.5397014 -0.097158246 -0.46064261 0.71617663
-26.599001 56.790001 -2.2130001 0.53515697 -0.1046669 -0.47039062 0.72014964
-26.643999 56.424999 -2.201 0.5315519 -0.12119173 -0.47738308 0.72465813
-26.711 56.108002 -2.1919999 0.53086042 -0.10860652 -0.47602823 0.72125655
-26.764999 55.77 -2.181 0.52952671 -0.11491874 -0.46369258 0.71317297
-26.833 55.464001 -2.171 0.52286631 -0.13394926 -0.42324096 0.68590415
-26.804001 55.185001 -2.161 0.51713192 -0.13925056 -0.395271 0.66562402
-26.851 54.841999 -2.1500001 0.49702352 -0.12883464 -0.35199153 0.62251812
-26.916 54.541 -2.141 0.50940973 -0.071847036 -0.3786616 0.63878393
-26.968 54.216 -2.1300001 0.52129179 -0.072812162 -0.44653428 0.69024605
-27.025999 53.908001 -2.1210001 0.52127713 -0.09255933 -0.47823718 0.71344787
-27.077999 53.591 -2.1110001 0.52195436 -0.086849779 -0.47080928 0.7082659
-27.136 53.290001 -2.1010001 0.50364602 -0.17300133 -0.51198816 0.73872906
-27.096001 53.005001 -2.0910001 0.46492749 -0.26387 -0.49846154 0.7309233
-27.162001 52.723999 -2.082 0.3798458 -0.37690577 -0.48780039 0.72407871
-27.271 52.530998 -2.0780001 -0.12916136 0.44961828 -0.5410158 0.71521842
-27.49 52.547001 -2.082 -0.062576167 0.46569288 -0.54536545 0.71986741
-27.722 52.588001 -2.0880001 0.016467862 0.47561502 -0.51210362 0.69909298
-27.951 52.620998 -2.0929999 0.059269954 0.47465572 -0.51005816 0.69926411
-28.177 52.646999 -2.098 0.10559237 0.46949041 -0.5046019 0.69727618
-28.320999 52.716999 -2.1029999 0.10078803 0.47020468 -0.50707972 0.69884229
-28.548 52.740002 -2.108 0.09652856 0.47102058 -0.50589383 0.69793028
-28.774 52.761002 -2.1129999 0.099140033 0.47048622 -0.50712824 0.6988312
-29.004 52.787998 -2.118 0.10315084 0.47006106 -0.50973797 0.7010209
-29.239 52.821999 -2.1229999 0.10130149 0.47038192 -0.50943667 0.70074737
-29.471001 52.848999 -2.1289999 0.099566288 0.47067338 -0.50810152 0.69972426
-29.697001 52.862 -2.1329999 0.10082024 0.47051257 -0.50635505 0.69852859
-29.851999 52.943001 -2.1389999 0.096868113 0.47129032 -0.50474352 0.69732636
-30.089001 52.973999 -2.145 0.095225818 0.47145247 -0.50919282 0.70043755
-30.333 53.014 -2.151 0.095674649 0.47136542 -0.51233929 0.70273077
-30.566 53.034 -2.1559999 0.096059866 0.47135758 -0.51267588 0.70302349
-30.809 53.07 -2.1619999 0.044769101 0.47705311 -0.50815237 0.69842881
-31.032 53.069 -2.1659999 0.041879818 0.4765293 -0.51129079 0.70018023
-31.281 53.111 -2.1719999 -0.063506342 0.467926 -0.56374669 0.73538977
-24.688 59.653999 -2.668 0.03226608 0.49046108 -0.41033939 0.64029026
-24.92 59.685001 -2.6730001 -0.01781071 0.4706299 -0.64919317 0.80203587
-25.160999 59.733002 -2.6789999 -0.12106626 0.4634786 -0.5590421 0.7362048
-25.367001 59.698002 -2.681 -0.11400732 0.46509561 -0.53266788 0.71627277
-25.445 59.362999 -2.6689999 -0.13410024 0.45478508 -0.52690554 0.70883131
-25.636999 59.292999 -2.6700001 -0.16458313 0.44279021 -0.49538556 0.68451267
-25.871 59.321999 -2.675 -0.21742174 0.41054291 -0.50664961 0.68739474
-26.013 59.395 -2.6800001 -0.22891909 0.40327674 -0.51020283 0.68945122
-26.17 59.244999 -2.677 -0.29128239 0.34586284 -0.51140392 0.68264228
-26.233 58.886002 -2.664 0.45801726 -0.29570633 -0.43009984 0.69441193
-26.296 58.533001 -2.6500001 0.5206694 -0.16419339 -0.42174906 0.6898756
-26.35 58.162998 -2.6359999 0.53098774 -0.10540663 -0.41517836 0.68222547
-26.421 57.835999 -2.6240001 0.53647715 -0.064644732 -0.42816913 0.68943125
-26.481001 57.487999 -2.6110001 0.53648007 -0.08915785 -0.47853911 0.72440296
-26.448 57.179001 -2.598 0.53979731 -0.10285023 -0.47768509 0.72810876
-26.507 56.837002 -2.586 0.53382337 -0.11237209 -0.48062134 0.72704315
-26.572001 56.511002 -2.5739999 0.53692019 -0.11204897 -0.48181394 0.73005682
-26.625999 56.167 -2.5610001 0.53034365 -0.11345652 -0.48242581 0.72585911
-26.688999 55.847 -2.549 0.53194791 -0.10317017 -0.48854315 0.72958004
-26.788 54.938999 -2.5150001 0.5207839 -0.092502981 -0.4130103 0.67108136
-26.836 54.601002 -2.5020001 0.50611317 -0.094812155 -0.36639494 0.63196921
-26.879999 54.258999 -2.49 0.51667154 -0.074133381 -0.40066114 0.65800804
-26.941999 53.958 -2.4790001 0.52212942 -0.10470378 -0.49351066 0.72604048
-26.997 53.645 -2.467 0.52422667 -0.087773696 -0.4873023 0.72109735
-27.08 52.772999 -2.4349999 0.43957978 -0.3000308 -0.56917298 0.77923471
-27.197001 52.594002 -2.4300001 -0.17860718 0.42866343 -0.55817676 0.72609514
-27.406 52.592999 -2.434 -0.022139188 0.47275239 -0.53486985 0.71419239
-27.649 52.653 -2.441 0.0047176592 0.47494408 -0.53904158 0.71844274
-27.864 52.661999 -2.4460001 0.064875305 0.47543585 -0.50725859 0.69825447
-28.09 52.687 -2.4519999 0.095964178 0.471347 -0.5128932 0.70316184
-28.319 52.717999 -2.4579999 0.099641033 0.47097498 -0.50499493 0.6976859
-28.548 52.747002 -2.464 0.10023595 0.47089148 -0.5045144 0.69736707
-28.697001 52.823002 -2.47 0.09842667 0.47105375 -0.49724653 0.69197798
-28.922001 52.841 -2.4760001 0.099176347 0.47094703 -0.49833423 0.69279438
-29.153 52.867001 -2.4820001 0.099280588 0.47092256 -0.50175339 0.69525617
-29.382999 52.890999 -2.487 0.1011317 0.47059709 -0.50832951 0.70006293
-29.615999 52.917999 -2.494 0.099597059 0.47085357 -0.5070613 0.69909501
-29.853001 52.950001 -2.5 0.098569512 0.47095925 -0.50956446 0.70083845
-30.093 52.987 -2.507 0.09575586 0.47141406 -0.50724536 0.69906956
-30.329 53.013 -2.513 0.09223251 0.47197288 -0.50702286 0.69881141
-30.483 53.09 -2.5190001 0.095095344 0.47255594 -0.51017499 0.70187658
-30.721001 53.117001 -2.526 0.090339571 0.47249135 -0.51118714 0.70194131
-25.540001 59.238998 -3.0350001 -0.1612736 0.43101218 -0.51389539 0.68983269
-26.000999 59.279999 -3.046 -0.24875617 0.37782609 -0.49743032 0.67236084
-26.218 59.268002 -3.05 -0.2509999 0.37575978 -0.53222537 0.69818348
-26.372999 57.890999 -2.99 0.53811437 -0.086336933 -0.45124897 0.707564
-27.351999 52.431 -2.7650001 0.022095878 0.47181061 -0.57006735 0.74031764
-27.621 52.542999 -2.777 0.045335434 0.47123712 -0.5692963 0.74041748
-27.754 52.594002 -2.7820001 0.070751682 0.47437915 -0.52394366 0.71032268
-28.25 52.729 -2.8 0.10950184 0.46930209 -0.52500904 0.7126497
-28.656 52.688999 -2.8080001 0.10071068 0.47066665 -0.50605166 0.69839674
-28.900999 52.743999 -2.816 0.095773183 0.47139832 -0.50436437 0.69697368
-29.135 52.775002 -2.823 0.094498806 0.47160226 -0.5005644 0.69419265
-29.292999 52.866001 -2.8310001 0.097324111 0.47169688 -0.5095219 0.70112944
-29.981001 52.924 -2.8499999 0.099066049 0.47120678 -0.51739538 0.70678705
-30.216999 52.951 -2.8570001 0.094691403 0.47190154 -0.51570743 0.70541596
-30.450001 52.972 -2.8640001 0.086368985 0.47256577 -0.52169615 0.70918608
-30.673 52.974998 -2.8699999 0.087631479 0.47262362 -0.51818019 0.70679778
-30.843 53.075001 -2.878 -0.009542767 0.45920134 -0.63104081 0.78049308
