# .PCD v0.7 - Point Cloud Data file format
VERSION 0.7
FIELDS x y z normal_x normal_y normal_z curvature
SIZE 4 4 4 4 4 4 4
TYPE F F F F F F F
COUNT 1 1 1 1 1 1 1
WIDTH 663
HEIGHT 1
VIEWPOINT 0 0 0 1 0 0 0
POINTS 663
DATA ascii
-9.3620005 15.201 -1.026 -0.0001802817 -0.25033313 -0.089681149 0.26591241
-9.3409996 15.059 -1.017 -0.0041261995 -0.25850725 -0.095331252 0.27555594
-10.049 15.121 -1.0470001 0.0038379547 -0.2097172 -0.064112067 0.2193317
-7.8709998 19.92 -1.377 0.46965674 0.10616092 -0.3220042 0.57925326
-7.7930002 19.545 -1.349 0.47833821 0.015192766 -0.34238014 0.58844066
-7.8709998 19.559999 -1.352 0.47427788 0.019790931 -0.32917553 0.5776571
-7.9590001 19.601 -1.358 0.47534519 0.013528757 -0.33214542 0.58004886
-7.9720001 19.458 -1.348 0.47006366 0.0054428689 -0.32056451 0.56899124
-7.9439998 19.219 -1.331 0.46214077 -0.0027650781 -0.30466133 0.55353433
-7.9920001 19.247 -1.334 0.46341312 -0.002839338 -0.30729479 0.55604845
-7.9549999 18.99 -1.316 0.45343897 -0.0062723383 -0.28657597 0.53644389
-7.9429998 18.798 -1.302 0.44098687 -0.0012460947 -0.26107669 0.51247633
-8.0170002 18.808001 -1.3049999 0.43758997 -0.00035464391 -0.25440371 0.50616831
-8.0450001 18.709999 -1.299 0.4344092 0.0016705431 -0.24854143 0.50048679
-8.1020002 18.681 -1.299 0.42611629 -0.00036210567 -0.23491916 0.48658219
-8.1330004 18.593 -1.294 0.42558789 -0.0059807152 -0.2351371 0.48626155
-8.158 18.569 -1.293 0.42040685 -0.015655015 -0.22909263 0.47903073
-8.0830002 18.245001 -1.2690001 0.43858466 -0.0090279952 -0.25923997 0.50955212
-8.073 18.068001 -1.257 0.44878685 0.023560693 -0.27348831 0.52608043
-8.1370001 18.061001 -1.258 0.44346088 0.025534205 -0.26293349 0.51618171
-8.1520004 17.943001 -1.251 0.45035744 0.021432826 -0.27682 0.52906567
-8.2320004 17.969 -1.255 0.43615708 0.030398095 -0.24902296 0.50315952
-8.2299995 17.816999 -1.245 0.45203841 0.035075568 -0.27896738 0.53234559
-8.2790003 17.775999 -1.244 0.45418179 0.043296956 -0.28306255 0.53691727
-8.4329996 18.031 -1.265 0.39491755 0.034945868 -0.1871798 0.43842602
-8.1549997 17.297001 -1.2079999 0.46384937 0.022802047 -0.30616441 0.55624884
-8.2010002 17.254999 -1.206 0.45830363 0.02499499 -0.2931022 0.54458779
-8.0469999 16.796 -1.171 0.48320705 -0.018806316 -0.3749252 0.61189181
-8.0889997 16.747999 -1.169 0.48366657 -0.021743115 -0.37791061 0.61418444
-8.6020002 17.665001 -1.2460001 0.35017055 0.069286041 -0.13832986 0.3828252
-8.1230001 16.552999 -1.1569999 0.47841272 -0.027105689 -0.36032254 0.59953797
-8.1359997 16.514 -1.155 0.47924098 -0.022285435 -0.36069122 0.60022223
-8.1660004 16.445 -1.152 0.47875455 -0.020815376 -0.35803354 0.59818661
-8.2580004 16.5 -1.158 0.47775379 -0.023606014 -0.35588682 0.59620583
-8.3629999 16.448999 -1.158 0.4616929 -0.035619263 -0.31457525 0.55980945
-8.4289999 16.451 -1.161 0.45834017 -0.033521734 -0.30535632 0.55176252
-8.4110003 16.290001 -1.149 0.42365557 -0.049929045 -0.2432895 0.49108729
-8.2749996 15.967 -1.124 0.44085616 -0.040668271 -0.2696901 0.51840216
-8.2530003 15.803 -1.112 0.42694911 -0.039573032 -0.24434385 0.49351341
-8.283 15.74 -1.109 0.39359117 -0.039652292 -0.19551507 0.44126233
-8.4259996 15.888 -1.124 0.3701379 -0.036473401 -0.16674948 0.40759999
-8.3839998 15.691 -1.109 0.33082536 -0.035345487 -0.12755948 0.35632309
-8.4440002 15.684 -1.1109999 0.29977635 -0.033829242 -0.10205647 0.31847417
-8.3439999 15.384 -1.0880001 0.28371376 -0.097546607 -0.10691455 0.31849578
-8.3540001 15.345 -1.086 0.26814353 -0.10305474 -0.098080397 0.30354735
-8.4560003 15.417 -1.094 0.24887091 -0.098599128 -0.084492445 0.28070891
-8.4829998 15.351 -1.091 0.22465602 -0.11042495 -0.074989319 0.26131856
-8.6110001 15.468 -1.103 0.19001538 -0.10447456 -0.056786984 0.22415517
-8.6260004 15.381 -1.098 0.17568637 -0.11781715 -0.055373222 0.21866132
-9.0620003 15.412 -1.1160001 0.027944278 -0.20179948 -0.060225844 0.21244073
-9.0209999 15.123 -1.096 0.029356895 -0.26410812 -0.10002229 0.28393555
-9.2069998 15.325 -1.1160001 -0.00057983166 -0.24002162 -0.082723379 0.25387767
-9.3050003 15.378 -1.123 0.003203514 -0.2362107 -0.080352306 0.24952406
-9.3260002 15.359 -1.123 0.009566294 -0.23654306 -0.080576986 0.25007355
-9.3109999 15.225 -1.114 0.002624342 -0.2598139 -0.096488446 0.27716452
-9.3290005 15.149 -1.109 -0.0024036933 -0.27525163 -0.10827363 0.29579115
-9.4809999 15.287 -1.124 0.012576221 -0.24545239 -0.086575627 0.26057699
-9.5869999 15.35 -1.132 0.021268843 -0.22899777 -0.076209635 0.24228135
-9.6359997 15.322 -1.132 0.02070839 -0.22983572 -0.076701075 0.24317966
-9.6800003 15.284 -1.132 0.026554283 -0.23564763 -0.080658942 0.25048113
-9.6829996 15.236 -1.1289999 0.024193654 -0.23536335 -0.080265343 0.24984747
-9.7270002 15.2 -1.128 0.024188112 -0.24138489 -0.084236443 0.25680247
-9.8249998 15.246 -1.135 0.01559844 -0.21623385 -0.068196267 0.22726882
-9.8179998 15.132 -1.128 0.018996038 -0.23787671 -0.081567079 0.25218913
-10.003 15.311 -1.146 0.010706347 -0.19786078 -0.057990044 0.20646152
-9.9910002 15.188 -1.138 0.01007134 -0.21940205 -0.069929153 0.23049681
-10.107 15.26 -1.147 0.0035349925 -0.20297657 -0.060648888 0.21187323
-10.218 15.27 -1.152 -0.0026515373 -0.20008829 -0.059166491 0.20866966
-7.4640002 19.841 -1.5 0.48102254 0.083269298 -0.35073358 0.60110772
-7.4889998 19.719999 -1.4910001 0.48719767 0.048729513 -0.36842042 0.61275584
-7.5819998 19.777 -1.498 0.48493886 0.070936099 -0.36134908 0.60890949
-7.5970001 19.632 -1.488 0.48447075 0.024502801 -0.36061546 0.60444671
-7.5770001 19.396 -1.47 0.47705111 0.01278558 -0.34043115 0.58620358
-7.5999999 19.278 -1.461 0.47580898 0.015179943 -0.33683884 0.58316809
-7.6469998 19.306999 -1.465 0.47555578 0.010610871 -0.33661246 0.58272964
-7.6900001 19.238001 -1.461 0.47525963 0.012207244 -0.3358146 0.58205855
-7.6880002 19.059999 -1.448 0.47183505 0.0094256066 -0.32733849 0.57434106
-7.723 18.973 -1.442 0.46975517 0.0024365932 -0.32382029 0.57055712
-7.7210002 18.799 -1.429 0.46409357 -0.0011572503 -0.31064707 0.55846733
-7.77 18.750999 -1.427 0.45984492 0.0060631 -0.29903853 0.54856008
-7.8509998 18.778 -1.432 0.4600825 0.0054633357 -0.29934955 0.54892248
-7.882 18.687 -1.426 0.45844004 -0.0018269978 -0.29699481 0.54623848
-7.8400002 18.506001 -1.411 0.46208537 -0.019117206 -0.31183791 0.55779141
-7.8239999 18.306999 -1.396 0.46381143 -0.0069339052 -0.3130343 0.55960661
-7.836 18.177999 -1.387 0.46071872 0.00054365024 -0.30350754 0.55170542
-7.8060002 17.952 -1.369 0.46281469 0.016772289 -0.30562949 0.55487669
-7.8099999 17.806999 -1.359 0.46967781 0.011614941 -0.32404691 0.5707351
-7.8860002 17.827999 -1.363 0.46850264 0.015618715 -0.31986099 0.56749427
-7.9109998 17.733999 -1.357 0.47254083 0.020831347 -0.33002603 0.57675469
-7.8709998 17.57 -1.344 0.47886649 0.01286586 -0.35040003 0.59351397
-7.8520002 17.379999 -1.329 0.47791636 0.016313873 -0.34653026 0.59055346
-7.842 17.212999 -1.317 0.47977141 0.010737251 -0.35322493 0.59587222
-7.901 17.198 -1.317 0.47658014 0.014621075 -0.3420774 0.58682144
-7.9349999 17.129 -1.313 0.47836277 0.010019489 -0.3484112 0.59187979
-7.9320002 16.983 -1.303 0.48341745 0.0057901181 -0.36662209 0.60674351
-7.967 16.92 -1.299 0.48471725 0.0028572567 -0.37218708 0.61113191
-7.9400001 16.792 -1.289 0.48937851 -0.017951645 -0.40214872 0.63366961
-7.9619999 16.702999 -1.283 0.48772982 -0.022824727 -0.39619258 0.62878448
-8.0439997 16.74 -1.289 0.48862579 -0.019137342 -0.39860851 0.63088048
-8.0799999 16.681 -1.286 0.48706779 -0.024141215 -0.39343295 0.62658381
-8.0710001 16.528 -1.275 0.4843663 -0.029093884 -0.38396516 0.61877817
-8.0200005 16.292999 -1.256 0.48479643 -0.027400237 -0.38321242 0.61857104
-8.0159998 16.157 -1.2460001 0.48051339 -0.037353195 -0.3712163 0.60835016
-8.0290003 16.120001 -1.244 0.48100457 -0.034429114 -0.37113845 0.6085183
-8.1070004 16.15 -1.249 0.47750062 -0.037451237 -0.36023203 0.59931338
-8.2440004 16.295 -1.2640001 0.4737893 -0.03773237 -0.34907997 0.58970916
-8.1850004 16.052 -1.245 0.46543512 -0.045921389 -0.32760054 0.57101727
-8.125 15.81 -1.225 0.4661724 -0.038816273 -0.32574636 0.57002991
-8.0860004 15.612 -1.209 0.4542717 -0.056733888 -0.30426455 0.54968935
-8.1049995 15.53 -1.204 0.43375152 -0.076307386 -0.27092147 0.51707023
-8.1190004 15.438 -1.198 0.42165872 -0.093702286 -0.25796491 0.50311238
-8.1300001 15.4 -1.196 0.41501871 -0.10648526 -0.25381076 0.49799553
-8.1289997 15.281 -1.188 0.40429264 -0.12882806 -0.2500346 0.49251041
-8.1520004 15.208 -1.183 0.38325313 -0.1444229 -0.2287046 0.46909139
-8.1459999 15.082 -1.174 0.36119816 -0.16537468 -0.21375796 0.4511157
-8.1429996 14.966 -1.166 0.36411351 -0.19004598 -0.2368257 0.47411236
-8.2290001 15.01 -1.1720001 0.32453915 -0.19874153 -0.19602045 0.42807463
-8.3120003 15.05 -1.178 0.30332166 -0.20458411 -0.17923775 0.40741238
-8.4060001 15.108 -1.186 0.24095227 -0.19031617 -0.1215561 0.33023345
-8.3870001 15.018 -1.179 0.23677634 -0.21973857 -0.13806513 0.35129768
-8.4119997 14.952 -1.175 0.21324807 -0.23820186 -0.13712135 0.34787515
-8.474 14.953 -1.178 0.18781392 -0.23780417 -0.12320018 0.32711339
-8.5150003 14.916 -1.177 0.17044088 -0.2501289 -0.1241312 0.32714388
-8.6110001 14.974 -1.1849999 0.14501293 -0.25011665 -0.11380306 0.31070602
-8.6499996 14.933 -1.183 0.11955038 -0.26704705 -0.118173 0.31554917
-8.7180004 14.942 -1.187 0.10036077 -0.26598492 -0.11205822 0.30557701
-8.7810001 14.997 -1.193 0.094550505 -0.26385057 -0.10907772 0.30075717
-8.8009996 14.923 -1.189 0.083873123 -0.27984643 -0.11943632 0.31561649
-8.9090004 14.998 -1.198 0.064765163 -0.28803194 -0.12295118 0.31980294
-9.0089998 15.059 -1.207 0.041045781 -0.28713119 -0.119297 0.31362534
-9.0930004 15.092 -1.2130001 0.020817991 -0.29782659 -0.12737972 0.32459152
-9.132 15.05 -1.211 0.018163892 -0.30402833 -0.13290012 0.33230346
-9.1330004 14.944 -1.204 0.0068198498 -0.31020454 -0.13828549 0.33970022
-9.2299995 15.051 -1.215 6.3651241e-06 -0.30630788 -0.13489738 0.33469662
-9.3400002 15.124 -1.225 -0.0034296541 -0.28973603 -0.12028515 0.31373116
-9.3879995 15.094 -1.225 -0.0031057224 -0.2922211 -0.12241989 0.31684294
-9.4870005 15.148 -1.233 0.011454767 -0.28083789 -0.11292073 0.3029063
-9.4580002 14.996 -1.221 -0.0012178994 -0.29356405 -0.12344342 0.31846446
-9.4870005 14.938 -1.219 0.00047864532 -0.29447278 -0.12413472 0.31956828
-9.5839996 14.987 -1.226 0.010315744 -0.28807482 -0.11875439 0.31176293
-9.6389999 14.968 -1.227 0.012822436 -0.28985012 -0.12031373 0.31409058
-9.6560001 14.943 -1.226 0.011354091 -0.2937175 -0.12361559 0.31887254
-9.7530003 14.99 -1.234 0.016239963 -0.28049979 -0.11259106 0.30268896
-9.7349997 14.861 -1.224 0.0072523179 -0.29797724 -0.12716338 0.32405794
-9.7939997 14.848 -1.226 0.0055818176 -0.30112088 -0.12996322 0.32801735
-10.036 15.113 -1.2539999 0.007875883 -0.23248321 -0.077836812 0.24529378
-10.233 15.306 -1.276 -0.002383294 -0.20279554 -0.060692817 0.21169631
-10.154 15.085 -1.258 0.0030590065 -0.22845444 -0.075207472 0.24053472
-10.145 15.019 -1.253 0.0024235942 -0.23625247 -0.08004868 0.2494572
-10.147 14.921 -1.247 0.0022687132 -0.23752683 -0.080631614 0.25084975
-10.231 14.944 -1.252 -0.001026778 -0.21976742 -0.069591165 0.23052484
-7.5 19.731001 -1.614 0.49045885 0.047989752 -0.38112575 0.62298453
-7.6849999 20.028999 -1.643 0.47898912 0.11465676 -0.35309452 0.6060136
-7.599 19.620001 -1.608 0.48522863 0.022091744 -0.36413693 0.60706717
-7.5219998 19.242001 -1.575 0.4763532 0.014256276 -0.3390457 0.58486545
-7.552 19.142 -1.568 0.47675699 0.016373374 -0.34010142 0.58586204
-7.6560001 19.226999 -1.5779999 0.47670481 0.013446685 -0.34011078 0.58575046
-7.8460002 19.525 -1.608 0.48070842 0.012863819 -0.35033453 0.59496248
-7.6399999 18.929001 -1.554 0.47064123 0.0058182552 -0.32555324 0.57229531
-7.7319999 18.983999 -1.561 0.47115254 0.0091060326 -0.32591724 0.57296568
-7.7010002 18.740999 -1.541 0.46415907 -0.0005585961 -0.31138146 0.55892968
-7.7379999 18.665001 -1.536 0.46189961 -0.0069803521 -0.3079327 0.55517793
-7.8639998 18.799999 -1.551 0.46117049 -0.0073396601 -0.30489641 0.55289596
-7.9310002 18.794001 -1.553 0.46270227 -0.0053948537 -0.30772999 0.55571598
-7.849 18.438999 -1.522 0.46100178 -0.016216032 -0.30832416 0.55484176
-7.7410002 18.108 -1.492 0.46016905 0.0038083568 -0.30200467 0.55043334
-7.8200002 18.135 -1.497 0.46005118 0.0027870722 -0.30162328 0.55011952
-7.8130002 17.964001 -1.483 0.4643971 0.0019727573 -0.31205451 0.55950564
-7.849 17.892 -1.479 0.46673036 0.010512669 -0.31604677 0.56376708
-7.868 17.783001 -1.471 0.46973571 0.0061968379 -0.32517529 0.57133967
-7.7930002 17.468 -1.443 0.48140031 0.010546528 -0.35954082 0.6009385
-7.9060001 17.572001 -1.455 0.47958708 0.0082093328 -0.35329536 0.59572542
-7.8449998 17.364 -1.437 0.48002464 0.011800129 -0.35425168 0.59670526
-7.8520002 17.236 -1.427 0.4790602 0.014385134 -0.35016984 0.59356928
-7.862 17.115 -1.418 0.4816654 0.013660669 -0.35865819 0.60068619
-7.8499999 16.948999 -1.405 0.48733485 -0.0084398091 -0.38835579 0.62320679
-7.888 16.889999 -1.401 0.48923981 -0.01193504 -0.39851412 0.63111925
-7.8940001 16.766001 -1.392 0.49039984 -0.016014364 -0.4060384 0.63687962
-7.948 16.745001 -1.392 0.49068153 -0.016391315 -0.40737239 0.63795716
-7.967 16.65 -1.386 0.48978078 -0.023026191 -0.40672588 0.63705683
-8.0120001 16.677 -1.39 0.48938051 -0.020955339 -0.40285802 0.63421369
-7.9879999 16.493999 -1.374 0.48760638 -0.025882687 -0.39667255 0.62910968
-7.8699999 16.121 -1.341 0.46930861 -0.01973512 -0.32798356 0.57289898
-7.9330001 16.122 -1.344 0.47218689 -0.025307458 -0.33802181 0.58125699
-7.9439998 16.018 -1.336 0.46662644 -0.029137921 -0.3238427 0.5687384
-7.9949999 15.995 -1.336 0.4657616 -0.031335656 -0.32225227 0.56724095
-8.0310001 15.941 -1.3329999 0.46490189 -0.026538525 -0.31805885 0.56391442
-8.007 15.77 -1.319 0.46229714 -0.033396099 -0.31384987 0.55976397
-8.0150003 15.726 -1.316 0.4549101 -0.034352146 -0.29673386 0.54421896
-8.0380001 15.649 -1.311 0.44625986 -0.049250994 -0.28367257 0.5310778
-8.0570002 15.566 -1.306 0.44534069 -0.059333637 -0.28595912 0.53256118
-8.0170002 15.371 -1.289 0.44160989 -0.10108644 -0.30174926 0.54432559
-8.0620003 15.338 -1.289 0.42455068 -0.11118031 -0.27368242 0.51721019
-8.0780001 15.253 -1.283 0.41081208 -0.12867883 -0.26084879 0.50335562
-8.1639996 15.298 -1.29 0.39530191 -0.13286209 -0.23863208 0.48048016
-8.1269999 15.173 -1.279 0.38518304 -0.14950544 -0.23499385 0.47533143
-8.1750002 15.147 -1.279 0.36025766 -0.16996267 -0.2158739 0.45307222
-8.1569996 15.001 -1.267 0.34990656 -0.19931839 -0.22603145 0.46179286
-8.1969995 14.963 -1.266 0.33278608 -0.21536723 -0.21911842 0.45292661
-8.2110004 14.878 -1.26 0.32513258 -0.23898365 -0.23266795 0.4657883
-8.2790003 14.89 -1.2640001 0.29689336 -0.23849738 -0.20129859 0.43075261
-8.3559999 14.918 -1.2690001 0.25306615 -0.24661538 -0.17041805 0.39230591
-8.3710003 14.889 -1.267 0.24189064 -0.25621486 -0.17047772 0.391433
-8.3839998 14.804 -1.262 0.22438525 -0.27536634 -0.17572868 0.39630282
-8.4799995 14.864 -1.27 0.18610418 -0.26617768 -0.14458662 0.35551459
-8.5059996 14.801 -1.266 0.16499677 -0.28184921 -0.14784864 0.35849983
-8.6199999 14.891 -1.278 0.1400594 -0.27798381 -0.13409746 0.33893031
-8.6660004 14.862 -1.278 0.11883786 -0.28987181 -0.13715795 0.34199473
-8.8459997 15.062 -1.301 0.10220034 -0.26023686 -0.10825497 0.29981205
-8.9829998 15.185 -1.316 0.081054009 -0.26633555 -0.10842627 0.29876518
-8.9469995 15.07 -1.306 0.072758153 -0.27834925 -0.11628041 0.31031144
-8.8280001 14.765 -1.278 0.069674544 -0.31732309 -0.15079406 0.35817221
-8.9370003 14.841 -1.288 0.057325535 -0.31323189 -0.14482418 0.34982064
-9.1059999 15.013 -1.308 0.020695662 -0.30778438 -0.13643309 0.33730331
-9.0670004 14.844 -1.294 0.021517858 -0.3244161 -0.15264443 0.35917845
-9.1300001 14.842 -1.2970001 -0.0021837391 0.39632329 -0.84542811 0.93371606
-9.1370001 14.749 -1.29 0.0047934651 0.39781469 -0.84379864 0.93288565
-9.2309999 14.85 -1.302 0.010218678 0.39372474 -0.84825057 0.93522865
-9.2980003 14.853 -1.3049999 0.014332427 0.39441884 -0.84753764 0.93492872
-9.2950001 14.744 -1.2970001 0.024342252 0.40029508 -0.84075654 0.93150425
-9.4469995 14.882 -1.314 0.016721724 0.38921994 -0.85293734 0.93769604
-9.4840002 14.837 -1.313 0.016667437 0.39271471 -0.84936345 0.93590647
-9.8439999 15.292 -1.362 0.01743908 -0.24466863 -0.086492598 0.26009199
-9.6199999 14.844 -1.3200001 0.011771014 0.39009312 -0.85219216 0.93730611
-9.7580004 14.952 -1.334 0.0114098 -0.30046082 -0.12968543 0.3274526
-9.6780005 14.78 -1.318 0.019802013 0.39813849 -0.84355485 0.93300116
-9.658 14.648 -1.307 0.01840473 0.41087365 -0.8293823 0.92575961
-9.7779999 14.729 -1.319 0.01688236 0.399591 -0.84197736 0.9321394
-9.8830004 14.786 -1.3279999 0.0076541752 -0.30683362 -0.13504332 0.33532396
-9.9020004 14.715 -1.324 0.0030270703 -0.30683756 -0.13485941 0.33517981
-10.127 14.946 -1.351 0.0057482342 -0.25613955 -0.093489915 0.27272856
-10.05 14.733 -1.332 -0.0027283775 -0.29398564 -0.12326318 0.31879273
-7.467 19.690001 -1.734 0.49046326 0.039280981 -0.382305 0.62310058
-7.5840001 19.811001 -1.749 0.48883122 0.063251846 -0.37467188 0.61914116
-7.6620002 19.92 -1.761 0.48528817 0.088677749 -0.36531341 0.61385846
-7.5450001 19.434 -1.715 0.48387641 0.018577745 -0.36151129 0.6042946
-7.6009998 19.396999 -1.714 0.48116332 0.015380308 -0.3530581 0.59699643
-7.6300001 19.291 -1.706 0.47654796 0.012639724 -0.33952886 0.58526707
-7.7220001 19.347 -1.714 0.47572112 0.006923385 -0.3383151 0.58379418
-7.6209998 18.919001 -1.674 0.46850771 0.0066082329 -0.31972936 0.56724775
-7.7729998 19.124001 -1.696 0.47560775 0.018100074 -0.33649886 0.58289093
-7.6199999 18.662001 -1.652 0.46873266 -0.002595488 -0.32392919 0.56977814
-7.6110001 18.472 -1.635 0.46501184 -0.014584374 -0.31856376 0.56385422
-7.6149998 18.319 -1.622 0.4638145 -0.007726267 -0.3137213 0.56000412
-7.6880002 18.332001 -1.626 0.46368814 -0.007798668 -0.31292841 0.55945659
-7.7639999 18.35 -1.63 0.46219686 -0.0079428852 -0.30970272 0.5564214
-7.8979998 18.504999 -1.648 0.4599379 -0.019496489 -0.30670431 0.55316412
-7.8099999 18.142 -1.614 0.46012592 0.0025873259 -0.30178517 0.55026978
-7.7490001 17.843 -1.587 0.4679026 0.0051117502 -0.3206909 0.56727564
-7.7810001 17.841999 -1.5880001 0.46820319 0.0065583661 -0.32096556 0.56769371
-7.7709999 17.666 -1.573 0.4762108 0.0026609078 -0.34428436 0.58763552
-7.7529998 17.474001 -1.556 0.47959927 0.0072113201 -0.35441422 0.59638655
-7.79 17.409 -1.552 0.48099938 0.008385364 -0.35889524 0.60019708
-7.8439999 17.385 -1.552 0.48148882 0.0092275999 -0.36008584 0.60131395
-7.8070002 17.158001 -1.5319999 0.48234898 0.0061035678 -0.36332047 0.60390359
-7.8530002 17.115999 -1.53 0.48208627 0.0018905997 -0.36323309 0.60361332
-7.848 16.964001 -1.517 0.48823982 -0.010760613 -0.39369726 0.62728894
-7.8940001 16.993999 -1.521 0.48804092 -0.010933626 -0.39203915 0.62609756
-7.908 16.884001 -1.513 0.49009275 -0.017986253 -0.40656963 0.63703477
-7.8920002 16.712999 -1.498 0.49100456 -0.020967074 -0.41289949 0.64188087
-7.8829999 16.556999 -1.484 0.47443926 -0.0039290078 -0.33961958 0.58348054
-7.8639998 16.385 -1.469 0.4635458 -0.011853587 -0.31164879 0.55869508
-7.927 16.382999 -1.472 0.46733221 -0.01708518 -0.32277685 0.56822199
-8.0080004 16.419001 -1.478 0.48015013 -0.017463773 -0.36169809 0.60139394
-7.9699998 16.275999 -1.465 0.46880159 -0.019999199 -0.32715511 0.57201868
-7.98 16.167 -1.456 0.46882376 -0.021528821 -0.32721943 0.57212913
-7.9860001 16.052 -1.447 0.46467575 -0.025879733 -0.31752959 0.56339896
-8.0550003 16.065001 -1.451 0.46419576 -0.027077544 -0.31662017 0.56254709
-7.9850001 15.799 -1.426 0.45862651 -0.034686301 -0.30558079 0.55219656
-7.9749999 15.657 -1.414 0.45887017 -0.048615195 -0.31178993 0.55690056
-8.0229998 15.63 -1.414 0.45781079 -0.056775413 -0.31302932 0.55749577
-8.0290003 15.582 -1.41 0.44923159 -0.065813899 -0.29755574 0.5428443
-8.0979996 15.594 -1.414 0.44111899 -0.067944869 -0.28130952 0.52757704
-8.0939999 15.467 -1.404 0.43877435 -0.086990267 -0.28657874 0.5312416
-8.0810003 15.325 -1.391 0.42302993 -0.11476102 -0.27320707 0.51649445
-8.118 15.279 -1.3890001 0.41027206 -0.12942018 -0.26040715 0.50287634
-8.1169996 15.16 -1.38 0.40262675 -0.16007444 -0.27097416 0.51103729
-8.1009998 15.017 -1.367 0.39337534 -0.18517691 -0.27798229 0.51605117
-8.1800003 15.051 -1.374 0.34946182 -0.20127632 -0.22718206 0.46286866
-8.1829996 15 -1.369 0.34954864 -0.20880817 -0.23402095 0.46962848
-8.1709995 14.866 -1.358 0.33192432 -0.23944947 -0.24164736 0.4752928
-8.2189999 14.843 -1.358 0.32436594 -0.24866313 -0.24201986 0.47499499
-8.2810001 14.844 -1.3609999 0.28973442 -0.26264226 -0.21797186 0.44770384
-8.3369999 14.835 -1.363 0.25624174 -0.27805743 -0.20293385 0.42913625
-8.3990002 14.836 -1.3660001 0.23776264 -0.27645105 -0.18641359 0.40951958
-8.382 14.697 -1.354 0.22963683 -0.3095184 -0.21644294 0.44202065
-8.4110003 14.695 -1.355 0.21795048 -0.31227455 -0.21070731 0.43521875
-8.4680004 14.687 -1.357 0.17218745 -0.32378507 -0.19458404 0.41514844
-8.5179996 14.667 -1.358 0.14430603 -0.32748866 -0.18485099 0.40279391
-8.5679998 14.647 -1.359 0.11965749 -0.33340383 -0.18156567 0.39804789
-8.6129999 14.619 -1.358 0.10679334 -0.33787346 -0.18230143 0.39849353
-8.8760004 14.958 -1.398 0.098609813 -0.29770795 -0.13866422 0.34290186
-8.816 14.751 -1.378 0.083192147 -0.32040128 -0.15676147 0.36626777
-8.8210001 14.655 -1.3710001 0.069380932 -0.33965036 -0.17473239 0.38821062
-8.9370003 14.796 -1.388 0.062808201 -0.32233161 -0.1548458 0.36306992
-9.0760002 14.919 -1.404 0.033618387 -0.32336348 -0.15249935 0.35909635
-9.0869999 14.833 -1.398 0.026148565 -0.3276706 -0.15631452 0.36398625
-9.1020002 14.752 -1.392 -0.010298913 0.40267581 -0.83824968 0.93000883
-9.2849998 14.945 -1.416 0.00066266814 0.39837036 -0.84366137 0.9329865
-9.3050003 14.872 -1.411 0.013899569 0.39814898 -0.8437165 0.93304521
-9.3990002 14.918 -1.42 0.005750753 0.39130351 -0.85106581 0.93673074
-9.4119997 14.887 -1.418 0.0063064992 0.39263546 -0.84966141 0.9360165
-9.4630003 14.864 -1.419 0.013388626 0.39536393 -0.84677899 0.9346264
-9.5299997 14.866 -1.4220001 0.012706441 0.39557439 -0.84663469 0.9345752
-9.46 14.655 -1.402 0.037633717 0.42343849 -0.81319022 0.91760278
-9.5790005 14.737 -1.414 0.023887746 0.41402873 -0.82572192 0.92401683
-9.6540003 14.752 -1.419 0.010406837 0.40709284 -0.83408487 0.92818666
-9.7819996 14.845 -1.433 0.0071376907 0.39045644 -0.8518669 0.93711489
-9.9289999 15.017 -1.454 0.0074792337 -0.29424399 -0.12423998 0.31948557
-9.9709997 14.98 -1.4529999 -0.0027591311 -0.29505745 -0.12493458 0.32042965
-7.5809999 19.631001 -1.867 0.4894242 0.029965866 -0.37912458 0.61981404
-7.652 19.723 -1.878 0.49162412 0.036284432 -0.38698757 0.62671381
-7.5830002 19.365 -1.8430001 0.48358834 0.018710906 -0.36086154 0.60367942
-7.6869998 19.450001 -1.854 0.48330766 0.016191635 -0.36014301 0.60295224
-7.79 19.531 -1.865 0.4863764 0.020387378 -0.36870551 0.61067289
-7.5650001 18.798 -1.79 0.47282228 0.0013253428 -0.33375359 0.57875222
-7.6469998 18.83 -1.796 0.47200045 -0.0020419061 -0.33243757 0.57732427
-7.6430001 18.653 -1.78 0.47103032 0.0020760559 -0.32906854 0.57459551
-7.6659999 18.544001 -1.771 0.46706057 -0.0089179799 -0.32209039 0.56742167
-7.6659999 18.462 -1.763 0.46671298 -0.011038385 -0.32197472 0.5671072
-7.6329999 18.219999 -1.74 0.46415615 -0.00042219087 -0.31253958 0.55957311
-7.6560001 18.115 -1.7309999 0.46615553 -0.00050457567 -0.3177155 0.5641315
-7.7280002 18.127001 -1.735 0.46573102 0.0011326745 -0.31633788 0.56300652
-7.678 17.855 -1.709 0.47104171 -0.0024892613 -0.33153385 0.57602185
-7.8000002 17.982 -1.725 0.46245459 -0.0018706881 -0.30821821 0.55575734
-7.8070002 17.844 -1.7130001 0.46632558 0.0024810322 -0.31702015 0.56388605
-7.901 17.983 -1.729 0.4624705 -0.0017554276 -0.30820751 0.55576426
-7.8039999 17.613001 -1.692 0.47664058 -0.0019744001 -0.34703743 0.58959746
-7.7620001 17.372 -1.669 0.48318094 0.0011498928 -0.36886704 0.60788816
-7.8130002 17.337999 -1.668 0.48411149 0.006978713 -0.37018895 0.60946906
-8.0050001 17.615999 -1.7 0.47782785 0.00026204437 -0.34965968 0.59209913
-7.8730001 17.181999 -1.656 0.48545823 0.0068700239 -0.37438253 0.61308986
-7.8610001 17.017 -1.641 0.48844546 -0.012246806 -0.3949267 0.62824839
-7.9070001 16.976 -1.6390001 0.48768339 -0.014185168 -0.39201987 0.62587208
-7.9349999 16.966999 -1.64 0.48814097 -0.013011478 -0.39329916 0.62700486
-7.9320002 16.823 -1.627 0.49047571 -0.018373169 -0.40843821 0.63853407
-7.8969998 16.613001 -1.607 0.4729152 0.0010526367 -0.33394742 0.57893938
-7.8860002 16.457001 -1.592 0.46491903 0.0013559014 -0.31217441 0.56000394
-7.9060001 16.365999 -1.585 0.45902282 -0.016800553 -0.30213857 0.54979265
-7.9569998 16.341 -1.585 0.46323633 -0.018512808 -0.31255344 0.55912459
-8.0120001 16.323 -1.586 0.46677804 -0.018313061 -0.32140732 0.56702715
-7.9549999 16.145 -1.568 0.46133286 -0.018852681 -0.30730665 0.5546357
-7.9650002 16.038 -1.559 0.45803481 -0.020846099 -0.29998347 0.5479238
-7.974 15.929 -1.549 0.45582241 -0.03339703 -0.2988472 0.54607606
-8.0030003 15.863 -1.545 0.46206287 -0.034361519 -0.31384122 0.55962408
-8.0279999 15.79 -1.54 0.45893723 -0.041267574 -0.30880794 0.55469698
-8.0369997 15.685 -1.531 0.45950711 -0.056087635 -0.31692761 0.5610131
-8.052 15.594 -1.524 0.45496136 -0.069334589 -0.31270176 0.55639869
-8.0769997 15.523 -1.5190001 0.44497061 -0.08692269 -0.29986835 0.54357654
-8.0869999 15.482 -1.515 0.44261351 -0.089040786 -0.29598525 0.53985393
-8.0839996 15.36 -1.505 0.44245866 -0.1061271 -0.30723608 0.54902333
-8.2220001 15.503 -1.523 0.42730936 -0.093923256 -0.26811653 0.513129
-8.1700001 15.289 -1.503 0.40102634 -0.13631904 -0.24989881 0.49178696
-8.2080002 15.244 -1.5 0.37708852 -0.15850519 -0.2298851 0.46921936
-8.151 15.026 -1.479 0.36611357 -0.20784524 -0.25635463 0.49290615
-8.2150002 15.032 -1.482 0.34773016 -0.21078178 -0.23348418 0.4688924
-8.1549997 14.866 -1.465 0.34707868 -0.24472187 -0.26858759 0.50248551
-8.1680002 14.781 -1.459 0.33803725 -0.26514626 -0.28127259 0.51350367
-8.2600002 14.837 -1.4680001 0.30170137 -0.27385125 -0.24377251 0.47480866
-8.29 14.781 -1.464 0.28159764 -0.28795329 -0.23847932 0.46806699
-8.3409996 14.762 -1.465 0.25697407 -0.29312995 -0.22032356 0.44777596
-8.3830004 14.729 -1.464 0.24075285 -0.30915993 -0.22534007 0.45201764
-8.3450003 14.556 -1.448 0.20934209 -0.34155211 -0.24278307 0.46842885
-8.4639997 14.655 -1.462 0.1918771 -0.3345235 -0.22001243 0.44399127
-8.4460001 14.571 -1.454 0.17052191 -0.34972638 -0.22686046 0.45039088
-8.6059999 14.74 -1.476 0.15193385 -0.31516081 -0.17458916 0.39101356
-8.684 14.766 -1.482 0.12951286 -0.31209773 -0.16209638 0.37477168
-8.7060003 14.698 -1.478 0.1137158 -0.32396996 -0.168989 0.38268146
-8.7670002 14.696 -1.4809999 0.10340518 -0.32619497 -0.16816056 0.38127911
-8.7589998 14.578 -1.47 -0.073564075 0.42617881 -0.80076158 0.91008747
-8.9189997 14.739 -1.492 0.06599392 -0.33291084 -0.16666633 0.37810379
-9.1169996 15.013 -1.525 0.04290463 -0.31946731 -0.14960924 0.35536331
-9.0979996 14.875 -1.512 0.039627939 -0.32790098 -0.15775546 0.36602759
-9.0279999 14.659 -1.4910001 -0.027390774 0.42055017 -0.81635129 0.91871762
-9.2189999 14.864 -1.518 -0.01204783 0.40013465 -0.84120989 0.9316045
-9.2690001 14.84 -1.518 -0.0019321232 0.39959079 -0.84214354 0.93213856
-9.3009996 14.787 -1.516 0.011290316 0.41044691 -0.83021176 0.92619962
-9.4890003 14.981 -1.5420001 0.013315231 -0.31705183 -0.14551601 0.34910467
-9.5419998 15.011 -1.5470001 0.01354856 -0.31047022 -0.13918111 0.34050947
-9.4420004 14.752 -1.52 0.024490878 0.41744062 -0.82169402 0.92197478
-9.5810003 14.866 -1.5369999 0.0089822467 0.40203512 -0.8398999 0.93120611
-9.7309999 14.994 -1.556 0.010561858 -0.31168437 -0.14033157 0.34198195
-9.6070004 14.704 -1.525 0.017527226 0.41924557 -0.81978226 0.92093265
-9.6239996 14.629 -1.52 0.014442642 0.41998488 -0.8188104 0.92035121
-9.8299999 14.839 -1.548 0.0076544867 0.39907837 -0.84295607 0.93268275
-7.5560002 19.878 -2.0190001 0.49847332 0.059893005 -0.42135152 0.65543872
-7.5830002 19.761 -2.0090001 0.49390289 0.047698017 -0.39698222 0.6354605
-7.7249999 19.945 -2.0320001 0.49675396 0.088182241 -0.41797876 0.65516937
-7.7950001 19.938999 -2.0339999 0.49679279 0.088111401 -0.41799617 0.65520036
-7.5120001 19.035 -1.936 0.47585258 0.022625882 -0.33684254 0.5834471
-7.552 19.049 -1.939 0.47580862 0.022033405 -0.33683032 0.58338147
-7.533 18.827999 -1.916 0.47173268 -0.0056102462 -0.33274215 0.57730454
-7.6240001 18.882999 -1.925 0.47269151 0.0010208078 -0.33312762 0.57828391
-7.6420002 18.757999 -1.914 0.4739328 0.0032960176 -0.3366425 0.58133584
-7.6339998 18.57 -1.895 0.47124201 -0.0030634999 -0.33145189 0.5761413
-7.7690001 18.732 -1.916 0.47221458 0.0026697479 -0.33166084 0.57705516
-7.6300001 18.233 -1.863 0.46874216 -0.00060880929 -0.32432747 0.57000691
-7.7090001 18.261 -1.869 0.4627625 -0.0042926148 -0.31011677 0.55708164
-7.6560001 18.054001 -1.847 0.46623611 -0.0028433502 -0.31847006 0.56463033
-7.6929998 17.985001 -1.841 0.46881306 -0.0017774142 -0.32501346 0.57045823
-7.697 17.837999 -1.8279999 0.47401062 -0.011545613 -0.34313577 0.58528757
-7.8189998 17.965 -1.845 0.46900204 -0.0021136254 -0.32499045 0.57060158
-7.7820001 17.726999 -1.8200001 0.47669619 -0.011510223 -0.35056603 0.59183466
-7.8699999 17.777 -1.829 0.47018301 -0.0021511242 -0.32828116 0.57345027
-7.8860002 17.662001 -1.819 0.47424397 -0.0060376115 -0.34059566 0.58390856
-7.7909999 17.375 -1.7869999 0.48666355 -0.0027182773 -0.38393608 0.6198836
-7.7670002 17.176001 -1.767 0.49128968 -0.0034914687 -0.40539002 0.63696063
-7.809 17.125 -1.7640001 0.49051666 -0.0063337684 -0.4026427 0.63463998
-7.8410001 17.052999 -1.7589999 0.48822722 -0.013490874 -0.39480212 0.62802589
-7.941 17.129 -1.77 0.48786038 0.00044528767 -0.38614988 0.6221894
-7.9130001 16.927999 -1.75 0.49001262 -0.021798309 -0.40834761 0.63822824
-7.9619999 16.895 -1.749 0.49015209 -0.01866468 -0.40654659 0.63708526
-8.0030003 16.844999 -1.7460001 0.4907068 -0.018233277 -0.4091607 0.63916987
-7.8569999 16.469999 -1.704 0.44985232 0.0056599341 -0.27777576 0.52873296
-7.848 16.318001 -1.6900001 0.44529608 -0.018488884 -0.27327031 0.52278781
-7.9169998 16.33 -1.694 0.45626989 -0.014095765 -0.29499784 0.54351139
-7.9260001 16.218 -1.684 0.45497799 -0.021238893 -0.29368481 0.54194725
-7.9330001 16.104 -1.673 0.45843711 -0.016205017 -0.29975969 0.5479809
-7.9699998 16.049999 -1.67 0.45894498 -0.020466927 -0.30199265 0.54977173
-7.9970002 15.979 -1.665 0.45834321 -0.029832654 -0.30341205 0.55047923
-8.0900002 16.103001 -1.681 0.46413624 -0.019412544 -0.31400347 0.56071156
-8.0530005 15.903 -1.66 0.45579779 -0.037054803 -0.2999348 0.54688716
-7.9809999 15.637 -1.632 0.46469069 -0.066491023 -0.33687288 0.5777905
-8.0190001 15.591 -1.63 0.46473271 -0.071315244 -0.34000996 0.58023196
-8.0170002 15.466 -1.618 0.45597234 -0.091630191 -0.330057 0.57030213
-8.1759996 15.655 -1.643 0.44990259 -0.062703401 -0.29720974 0.54284221
-8.1239996 15.435 -1.62 0.44350439 -0.10404202 -0.30802345 0.54990846
-8.1549997 15.376 -1.6160001 0.43311518 -0.11295775 -0.29173881 0.53428435
-8.2279997 15.456 -1.627 0.4224638 -0.10772531 -0.26746947 0.51148832
-8.0710001 15.046 -1.582 0.41349912 -0.19051698 -0.32497615 0.55936366
-8.1099997 15.005 -1.58 0.39358774 -0.21126017 -0.30810082 0.54264933
-8.1420002 14.951 -1.577 0.37146381 -0.23165178 -0.29212952 0.52629608
-8.2510004 15.039 -1.59 0.34098136 -0.22482729 -0.23826581 0.47284901
-8.3000002 15.017 -1.591 0.31788778 -0.2422282 -0.22749311 0.45986983
-8.29 14.888 -1.5779999 0.30822036 -0.26947996 -0.24627179 0.47777507
-8.3240004 14.894 -1.581 0.29199031 -0.2738986 -0.23290128 0.46316496
-8.3920002 14.906 -1.585 0.26915014 -0.27811381 -0.21458331 0.44253257
-8.3260002 14.679 -1.561 0.26587075 -0.31621188 -0.25936455 0.48779827
-8.3100004 14.544 -1.548 0.24757349 -0.34293616 -0.28139728 0.50801796
-8.3540001 14.516 -1.548 0.21202749 -0.35443038 -0.26504612 0.49074024
-8.4060001 14.5 -1.549 0.17726645 -0.3625392 -0.25039774 0.47492853
-8.5790005 14.693 -1.576 0.16984077 -0.32717228 -0.19716483 0.41804492
-8.4989996 14.503 -1.554 0.14615981 -0.36677077 -0.23757067 0.46078554
-8.5240002 14.44 -1.55 -0.11644974 0.45069793 -0.74918139 0.88202149
-8.6300001 14.516 -1.562 -0.099359065 0.44037616 -0.77281672 0.89501345
-8.7740002 14.654 -1.5829999 0.10612853 -0.34366286 -0.18914416 0.40637782
-8.8640003 14.7 -1.591 0.087532423 -0.33805871 -0.1771602 0.39157549
-8.9420004 14.725 -1.598 -0.061977081 0.41911027 -0.81279695 0.91658795
-9.0310001 14.766 -1.6059999 0.053330876 -0.33394575 -0.16578281 0.37662697
-9.0769997 14.79 -1.6109999 0.044299114 -0.33100063 -0.16144541 0.37092915
-9.2089996 14.9 -1.628 -0.016473066 0.40162519 -0.83939958 0.93068027
-9.2180004 14.81 -1.6210001 -0.013478596 0.40389284 -0.83699977 0.92945129
-9.2010002 14.68 -1.608 0.0019927674 0.43020096 -0.80613899 0.9137488
-9.2329998 14.629 -1.605 0.01610497 0.4359642 -0.79831958 0.90974629
-9.3030005 14.637 -1.61 0.026443861 0.43660641 -0.79699391 0.90913349
-9.3529997 14.614 -1.6109999 0.02885893 0.4335928 -0.8008225 0.91112691
-9.3190002 14.461 -1.595 0.040324237 0.44847083 -0.77847403 0.89931858
-9.5349998 14.745 -1.633 0.020900853 0.42221099 -0.8161431 0.91912377
-7.638 19.709999 -2.145 0.49378389 0.047019549 -0.39714575 0.63541961
-7.6589999 19.582001 -2.132 0.49298722 0.033779487 -0.39474559 0.63245672
-7.6440001 19.364 -2.109 0.48787689 0.029043034 -0.37547189 0.61631685
-7.5650001 18.989 -2.0669999 0.48017904 0.019793106 -0.35087019 0.5950408
-7.6090002 18.926001 -2.063 0.47527084 0.0067294538 -0.33897895 0.58381021
-7.6729999 18.999001 -2.073 0.47696608 0.018811185 -0.34124857 0.58677179
-7.6810002 18.85 -2.0580001 0.47392029 0.00076681003 -0.3367368 0.58137137
-7.5970001 18.478001 -2.016 0.47210616 -0.0048443824 -0.33491516 0.57885736
-7.6409998 18.421 -2.0120001 0.46987337 -0.0061732829 -0.32892555 0.57359493
-7.6370001 18.249001 -1.994 0.47033969 -0.0017625242 -0.32890156 0.57393271
-7.7319999 18.313999 -2.0050001 0.46713498 -0.0073148385 -0.32168671 0.56723094
-7.7179999 18.122 -1.985 0.46886915 -0.0069535486 -0.3265734 0.57143396
-7.6919999 17.906 -1.962 0.47733235 -0.012261271 -0.3536678 0.59420317
-7.7480001 17.958 -1.969 0.4708764 -0.0071841106 -0.33179474 0.57607633
-7.7880001 17.896999 -1.965 0.47342303 -0.0095460042 -0.33979702 0.58282286
-7.7270002 17.607 -1.933 0.47927999 -0.012844149 -0.3602246 0.59969664
-7.7249999 17.451 -1.9170001 0.48406005 -0.0077544637 -0.37613916 0.61307007
-7.757 17.375999 -1.911 0.48877409 -0.010739662 -0.39765027 0.63019139
-7.7979999 17.323 -1.9069999 0.48915881 -0.0070141107 -0.39705575 0.63006252
-7.8899999 17.382 -1.9170001 0.48608187 -0.0018140785 -0.38062575 0.6173774
-7.8499999 17.221001 -1.899 0.49211261 -0.0021557547 -0.40884349 0.63979095
-7.8049998 16.981001 -1.873 0.47783864 0.00682576 -0.34863698 0.59154379
-7.8509998 16.941999 -1.8710001 0.48153907 0.0055103526 -0.36103153 0.60187542
-7.8829999 16.872999 -1.8660001 0.4715814 0.0090603754 -0.32918912 0.57518399
-7.8909998 16.750999 -1.854 0.4652437 0.00999026 -0.31210476 0.56032211
-7.934 16.705999 -1.851 0.46285781 0.0092655458 -0.30624282 0.55507469
-7.9219999 16.548 -1.835 0.4581067 0.0075928941 -0.29534924 0.54511517
-7.9219999 16.414 -1.822 0.45608258 -0.001223851 -0.29194391 0.54152012
-7.9089999 16.323 -1.812 0.44638968 -0.010254744 -0.27338874 0.52355546
-7.9419999 16.261 -1.807 0.44941834 -0.023013067 -0.28250745 0.531335
-7.973 16.195 -1.802 0.4533076 -0.018286727 -0.28912351 0.53797269
-7.9749999 16.072001 -1.79 0.45762485 -0.019369535 -0.29866183 0.54680395
-8.1000004 16.195999 -1.809 0.46151909 -0.01911116 -0.30788618 0.55512071
-8.0719995 16.014 -1.789 0.45857674 -0.029778328 -0.30383694 0.55090493
-8.0369997 15.822 -1.7690001 0.4573046 -0.05283707 -0.3101646 0.55508679
-8.0340004 15.755 -1.762 0.46103773 -0.063037336 -0.32484397 0.56749725
-8.1140003 15.788 -1.7690001 0.4584215 -0.060633343 -0.31661934 0.56042349
-8.0500002 15.544 -1.742 0.46574092 -0.082627296 -0.3513782 0.58924401
-8.066 15.457 -1.734 0.46015742 -0.0953537 -0.34471384 0.58280772
-8.0740004 15.354 -1.724 0.45436513 -0.11389425 -0.34453616 0.58148491
-8.1140003 15.313 -1.722 0.44406322 -0.12594774 -0.32776463 0.56611365
-8.1079998 15.187 -1.71 0.42873544 -0.16050363 -0.32515496 0.56151688
-8.2139997 15.327 -1.729 0.42269775 -0.14318736 -0.29430982 0.53459734
-8.125 15.047 -1.697 0.40708566 -0.20975487 -0.33643723 0.56824803
-8.1730003 15.024 -1.697 0.38344997 -0.22129287 -0.30093765 0.53532034
-8.276 15.099 -1.71 0.35335952 -0.22367284 -0.25398403 0.48928556
-8.3140001 15.057 -1.7079999 0.33242008 -0.24236284 -0.24551713 0.47908404
-8.2919998 14.906 -1.692 0.31473598 -0.27363119 -0.25965676 0.49127832
-8.2959995 14.804 -1.682 0.302625 -0.29803845 -0.27749741 0.50735945
-8.2700005 14.704 -1.671 0.29972386 -0.31316793 -0.29764968 0.52583635
-8.309 14.666 -1.67 0.27965164 -0.32187381 -0.28457472 0.512631
-8.5039997 14.898 -1.7029999 0.24389221 -0.29280639 -0.20842245 0.43434882
-8.3769999 14.57 -1.664 0.23547013 -0.35010237 -0.28062797 0.50672466
-8.3800001 14.472 -1.655 0.10043353 -0.23307292 -0.088017464 0.26862046
-8.434 14.459 -1.6569999 0.08370924 -0.26055628 -0.10350382 0.2925916
-8.4610004 14.402 -1.653 0.047226187 -0.2399728 -0.083335966 0.25838372
-8.5819998 14.503 -1.669 -0.13843755 0.44594038 -0.74567854 0.87980926
-8.5620003 14.418 -1.66 0.068829194 -0.30321038 -0.13619992 0.33944723
-8.6409998 14.447 -1.6670001 -0.096300431 0.45592931 -0.74935365 0.88242632
-8.7449999 14.517 -1.6799999 -0.081480458 0.4517813 -0.76173455 0.88937336
-8.9809999 14.802 -1.72 0.082089767 -0.34265822 -0.18146175 0.39633539
-9.0059996 14.738 -1.716 -0.054745339 0.4306393 -0.79973197 0.9099552
-9.0279999 14.671 -1.711 -0.04494451 0.43744853 -0.79229164 0.90614969
-9.1610003 14.782 -1.729 -0.024521923 0.42321157 -0.81374168 0.91754287
-9.1940002 14.732 -1.726 -0.0073530013 0.43312439 -0.8022356 0.91171968
-9.158 14.623 -1.714 -0.011247365 0.44078511 -0.7914378 0.90597558
-9.3389997 14.807 -1.742 -0.002718959 0.42209068 -0.81661296 0.91925222
-9.4300003 14.848 -1.751 -0.0065209852 0.41542482 -0.82462442 0.92337734
-9.2069998 14.399 -1.696 0.02071139 0.45863408 -0.76441562 0.89168686
-9.3900003 14.583 -1.724 0.023381613 0.43456453 -0.79986674 0.91059309
-7.585 19.806999 -2.283 0.50354213 0.061820902 -0.47781053 0.69690704
-7.5500002 19.531 -2.2509999 0.49913114 0.041951027 -0.43095809 0.66076976
-7.5560002 19.454 -2.243 0.49834737 0.048003536 -0.4259983 0.6573652
-7.5489998 19.257999 -2.2219999 0.4903684 0.034165595 -0.38589388 0.62493402
-7.526 19.021999 -2.1949999 0.48884627 0.028486755 -0.38125017 0.62059152
-7.579 18.981001 -2.1930001 0.48651811 0.026351593 -0.37220415 0.61313146
-7.5689998 18.782 -2.171 0.48108757 0.0038719214 -0.3595295 0.60060114
-7.7129998 18.969999 -2.197 0.48343244 0.018977005 -0.36217424 0.6043486
-7.658 18.664 -2.1619999 0.47562307 -0.0026545264 -0.34417117 0.58709294
-7.5640001 18.353001 -2.1240001 0.48276067 -0.011287957 -0.37216109 0.60966319
-7.5679998 18.198999 -2.1070001 0.48104256 -0.010515489 -0.36610955 0.60460627
-7.6290002 18.184 -2.109 0.48044786 -0.011115845 -0.36416635 0.60296834
-7.6339998 18.037001 -2.0929999 0.48012188 -0.010975756 -0.36297786 0.60198873
-7.6440001 17.903999 -2.079 0.48182803 -0.019735768 -0.37336847 0.60987848
-7.6960001 17.868 -2.0780001 0.47797504 -0.017866377 -0.35816503 0.59754628
-7.7820001 17.913 -2.086 0.47564134 -0.018804196 -0.35046196 0.59111071
-7.8499999 17.916 -2.0899999 0.47559804 -0.018271968 -0.34978569 0.59065843
-7.881 17.910999 -2.0910001 0.47566253 -0.018433545 -0.34990358 0.59078521
-8 18.028 -2.109 0.46720025 -0.0114116 -0.32208139 0.56757617
-7.763 17.344 -2.0250001 0.4924337 -0.015635468 -0.42078343 0.64791518
-7.8790002 17.455999 -2.0420001 0.48721284 -0.017782573 -0.3935011 0.62652671
-7.9109998 17.382 -2.036 0.48893964 -0.00965086 -0.39675203 0.62973589
-7.802 16.999001 -1.99 0.47556707 0.01510546 -0.33978713 0.58467728
-7.7839999 16.82 -1.97 0.44442543 0.024766633 -0.26572582 0.51839906
-7.8460002 16.885 -1.98 0.46987209 0.01559405 -0.32362598 0.57075101
-7.8530002 16.761 -1.967 0.45247841 0.021789152 -0.28186452 0.53353453
-8.1429996 17.24 -2.0320001 0.49231771 0.00012784824 -0.40723121 0.63891625
-8.1059999 17.021999 -2.007 0.49430525 -0.016600158 -0.42925966 0.65488708
-7.862 16.375999 -1.927 0.43451831 -0.0040533394 -0.25044572 0.50154328
-7.8899999 16.302 -1.92 0.43980196 -0.010631174 -0.26094377 0.51149821
-7.9299998 16.253 -1.9170001 0.44391668 -0.023011506 -0.27150166 0.5208692
-7.9460001 16.223 -1.915 0.44700444 -0.021483276 -0.27699429 0.52630824
-7.974 16.152 -1.909 0.44772112 -0.017318767 -0.27713764 0.52683908
-8.0139999 16.103001 -1.906 0.45199385 -0.018995363 -0.28623176 0.53533906
-8.085 16.118999 -1.911 0.45595047 -0.015842881 -0.29383272 0.54265964
-8.1999998 16.221001 -1.928 0.46385896 -0.018709417 -0.31343034 0.56013727
-8.0609999 15.822 -1.8789999 0.46244562 -0.063138984 -0.32873458 0.57088429
-8.0459995 15.671 -1.862 0.46742997 -0.079668686 -0.35461551 0.5921064
-7.9559999 15.434 -1.8329999 0.47045779 -0.090398803 -0.37479797 0.60825652
-8.0190001 15.437 -1.836 0.46716234 -0.097681619 -0.36997998 0.60387707
-8.1169996 15.507 -1.849 0.46673983 -0.087200254 -0.35819536 0.5947721
-8.184 15.516 -1.854 0.4621686 -0.094425619 -0.34976023 0.58723783
-8.243 15.51 -1.8559999 0.45115599 -0.099779584 -0.32323408 0.56389534
-8.2629995 15.43 -1.849 0.44153231 -0.12231568 -0.31786174 0.55762708
-8.1219997 15.052 -1.802 0.40881771 -0.21131952 -0.34329927 0.57414484
-8.25 15.175 -1.822 0.40161407 -0.1962001 -0.30568379 0.54150802
-8.1809998 14.992 -1.8 0.38885599 -0.24443638 -0.34854594 0.5765782
-8.1490002 14.822 -1.78 0.37742016 -0.2706683 -0.37240732 0.59531045
-8.2720003 14.935 -1.799 0.34375095 -0.27487037 -0.30527949 0.53564358
-8.4180002 15.087 -1.823 0.31642076 -0.25637642 -0.24098247 0.47320557
-8.3649998 14.881 -1.799 0.28987464 -0.30134168 -0.26598254 0.49556112
-8.3690004 14.779 -1.788 0.2792241 -0.31945002 -0.28019929 0.50845456
-8.4919996 14.887 -1.807 0.25601992 -0.3070761 -0.23657072 0.464551
-8.3030005 14.449 -1.751 0.10213417 -0.18970487 -0.063209534 0.22453234
-8.2989998 14.389 -1.745 0.067655176 -0.18942004 -0.056567818 0.2089428
-8.4619999 14.567 -1.772 0.21029431 -0.35941517 -0.27173531 0.49723542
-8.5459995 14.606 -1.781 0.19152072 -0.35673216 -0.2516216 0.47670898
-8.7539997 14.855 -1.819 0.16950041 -0.31386915 -0.18195888 0.40044135
-8.592 14.475 -1.771 0.1187002 -0.3514891 -0.20313981 0.42296585
-8.7600002 14.653 -1.799 -0.12046322 0.43789145 -0.76807052 0.89229625
-8.7709999 14.567 -1.791 -0.098530076 0.44720271 -0.76296902 0.88984275
-8.8839998 14.703 -1.811 -0.090144068 0.43431377 -0.78535903 0.90196627
-9.0240002 14.83 -1.832 -0.070140116 0.42279944 -0.80662668 0.91341424
-8.9689999 14.635 -1.8099999 -0.058139663 0.45141044 -0.76928383 0.8938396
-8.9309998 14.472 -1.791 -0.05416508 0.45659789 -0.76159585 0.88963121
-8.9940004 14.471 -1.795 -0.036178656 0.45822695 -0.7623654 0.8902145
-9.1599998 14.636 -1.821 -0.015174516 0.45173508 -0.77542806 0.89754301
-9.2690001 14.708 -1.835 -0.005961047 0.4356274 -0.79901552 0.91007286
-9.3000002 14.705 -1.837 -0.0027901311 0.43075719 -0.80552 0.91346705
-9.3109999 14.621 -1.829 0.0057914476 0.44645497 -0.78405201 0.90227109
-7.5380001 19.016001 -2.312 0.49325624 0.036506131 -0.40080684 0.63661647
-7.566 18.913 -2.302 0.49042329 0.023511935 -0.39029554 0.62721479
-7.598 18.823 -2.293 0.48901403 0.0075983442 -0.38891929 0.62486053
-7.6149998 18.695 -2.279 0.48492959 0.0020220801 -0.3744393 0.61267084
-7.6009998 18.493999 -2.256 0.48287579 -0.0064969063 -0.37083137 0.60887367
-7.6360002 18.417 -2.2479999 0.48239702 -0.0064488687 -0.36827004 0.60693598
-7.612 18.277 -2.2309999 0.48135287 -0.014158897 -0.36843312 0.60633653
-7.658 18.226999 -2.2279999 0.48229715 -0.015629999 -0.37235039 0.60950774
-7.6420002 18.030001 -2.2049999 0.48708442 -0.018981963 -0.39498457 0.62739491
-7.7290001 18.077 -2.214 0.48563078 -0.015555456 -0.38643762 0.62081659
-7.777 18.032 -2.2119999 0.48733717 -0.019023091 -0.39548641 0.62790835
-7.8600001 18.068001 -2.22 0.48296428 -0.014902234 -0.37324831 0.61056602
-7.882 17.965 -2.2090001 0.48082533 -0.026601497 -0.3719272 0.60846567
-7.7059999 17.490999 -2.1470001 0.49143302 -0.028043207 -0.42633456 0.65119427
-7.862 17.694 -2.178 0.48882627 -0.026403666 -0.40751246 0.63695735
-7.8140001 17.437 -2.1470001 0.49194393 -0.02717194 -0.42764291 0.6523999
-7.7709999 17.197001 -2.118 0.49500948 -0.0081642643 -0.43175316 0.65689564
-7.8629999 17.256001 -2.1289999 0.49372813 -0.01197819 -0.42499468 0.65156078
-7.928 17.254999 -2.132 0.49392661 -0.010810573 -0.42480412 0.65156651
-7.836 16.915001 -2.089 0.47184542 0.017867621 -0.32877553 0.57537007
-7.855 16.886 -2.0869999 0.47006437 0.014758762 -0.32425454 0.5712437
-7.8790002 16.799999 -2.079 0.45803383 0.017936118 -0.29426438 0.54470932
-7.8590002 16.622999 -2.0580001 0.44175676 0.014870679 -0.26132312 0.51347828
-7.8299999 16.427999 -2.0350001 0.42644855 0.0057507642 -0.23563591 0.48725325
-7.8790002 16.398001 -2.0339999 0.4367598 0.0016885176 -0.2535933 0.50504607
-7.9429998 16.398001 -2.0380001 0.4500286 0.0021356605 -0.27855885 0.52926868
-8.0450001 16.476999 -2.052 0.45899206 0.0042207092 -0.29756927 0.54702741
-7.9349999 16.124001 -2.007 0.44035688 -0.024448562 -0.26479325 0.51441944
-7.987 16.165001 -2.0139999 0.44563445 -0.019768134 -0.27368706 0.52334064
-8.0299997 16.125 -2.0120001 0.44867942 -0.021969281 -0.28020686 0.52944475
-8.0909996 16.118999 -2.0150001 0.45217001 -0.01912529 -0.28653875 0.53565657
-8.0459995 15.906 -1.989 0.46033505 -0.049751893 -0.31628227 0.56072992
-8.0930004 15.876 -1.988 0.46478003 -0.054622602 -0.33030128 0.57280278
-8.0819998 15.732 -1.972 0.46531937 -0.08172857 -0.34964493 0.5877527
-7.9959998 15.446 -1.936 0.47406578 -0.094581321 -0.39429173 0.62381887
-8.0340004 15.401 -1.933 0.47031063 -0.10732903 -0.39399853 0.62285346
-8.1289997 15.522 -1.952 0.47211343 -0.087830663 -0.37797573 0.61112273
-8.21 15.558 -1.96 0.47387689 -0.08593931 -0.38270688 0.61514992
-8.1490002 15.327 -1.932 0.45652461 -0.13256639 -0.3726283 0.60402024
-8.2519999 15.403 -1.946 0.45260873 -0.12962082 -0.35563922 0.59003007
-8.1409998 15.082 -1.905 0.41822168 -0.21674281 -0.38164181 0.60624856
-8.2229996 15.121 -1.914 0.40520361 -0.22060126 -0.34894648 0.57846224
-8.2510004 15.058 -1.909 0.39047724 -0.24391122 -0.35175687 0.57939458
-8.3039999 15.099 -1.916 0.38056767 -0.2518698 -0.34163404 0.57007366
-8.3249998 15.026 -1.91 0.3552956 -0.27171877 -0.32167029 0.55094266
-8.2959995 14.863 -1.89 0.33621198 -0.29994887 -0.33632976 0.56225038
-8.4420004 15.013 -1.915 0.30716091 -0.29711226 -0.28258675 0.51232684
-8.4709997 14.956 -1.911 0.28898022 -0.30238369 -0.26620495 0.49579284
-8.6420002 15.144 -1.941 0.25572041 -0.27830562 -0.20269832 0.42887476
-8.6040001 14.969 -1.92 0.24368493 -0.30695528 -0.22507769 0.45195559
-8.5039997 14.743 -1.89 0.24325977 -0.34322739 -0.27709952 0.50375044
-8.4069996 14.471 -1.855 0.088178053 -0.19845821 -0.064803004 0.22662847
-8.4239998 14.394 -1.848 0.055536453 -0.20205639 -0.06151852 0.21839325
-8.6239996 14.631 -1.886 0.17587727 -0.36329043 -0.25071082 0.47515121
-8.6120005 14.507 -1.872 -0.1438356 0.4558869 -0.72490388 0.86833584
-8.7670002 14.662 -1.898 0.13789308 -0.36319029 -0.22825682 0.4505806
-8.7580004 14.542 -1.885 -0.096845411 0.45463502 -0.75164378 0.88376492
-8.8360004 14.567 -1.892 -0.082502007 0.45575562 -0.75518167 0.88590014
-8.8699999 14.572 -1.895 -0.076945215 0.45346674 -0.76072419 0.88896233
-9.0179996 14.712 -1.919 -0.058931179 0.44709992 -0.77585435 0.89739686
-9.1079998 14.752 -1.929 -0.049465176 0.44133306 -0.78633231 0.90307266
-9.0670004 14.584 -1.909 -0.03671214 0.45257926 -0.77152389 0.89522338
-9.0790005 14.501 -1.901 -0.029371273 0.45497328 -0.7686578 0.89369917
-9.2030001 14.597 -1.919 -0.010021331 0.45230436 -0.77486658 0.89727247
-9.2779999 14.615 -1.926 -0.011787612 0.4473505 -0.78222108 0.90118325
