# .PCD v0.7 - Point Cloud Data file format
VERSION 0.7
FIELDS x y z normal_x normal_y normal_z curvature
SIZE 4 4 4 4 4 4 4
TYPE F F F F F F F
COUNT 1 1 1 1 1 1 1
WIDTH 681
HEIGHT 1
VIEWPOINT 0 0 0 1 0 0 0
POINTS 681
DATA ascii
16.613001 14.677 -0.505 0.097496875 0.39628622 -0.85145098 0.94420189
16.062 14.463 -0.48699999 0.074741066 0.54683894 -0.50645536 0.74907684
16.174999 14.656 -0.49399999 0.025826924 0.43625903 -0.81597424 0.92563653
15.786 14.395 -0.479 0.056033507 0.54660964 -0.46067864 0.71704018
15.716 14.377 -0.477 0.048829257 0.5467478 -0.45759144 0.71463794
15.646 14.403 -0.47600001 0.045415491 0.54632616 -0.44937065 0.70885038
15.586 14.439 -0.47600001 0.045882296 0.54655039 -0.4500528 0.70948577
15.583 14.527 -0.477 0.040856935 0.54675519 -0.44397905 0.70549834
15.29 14.345 -0.46700001 0.0032844963 0.54649764 -0.45489812 0.71105748
15.277 14.423 -0.46799999 -0.0011598095 0.54646951 -0.45208335 0.70923173
15.338 14.571 -0.47299999 0.0078988383 0.54819643 -0.45768762 0.71418458
15.157 14.491 -0.46700001 -0.0024687834 0.54589117 -0.44460762 0.70404488
14.942 14.331 -0.458 -0.018326923 0.54612255 -0.4796218 0.72706449
14.912 14.392 -0.45899999 -0.01137604 0.54676628 -0.47680402 0.72555137
14.861 14.433 -0.45899999 -0.02126826 0.54633379 -0.47863322 0.72665173
14.825 14.49 -0.45899999 -0.021534888 0.54629785 -0.47142982 0.72190797
14.701 14.459 -0.456 0.0042079398 0.54748076 -0.5185746 0.75410378
14.582 14.432 -0.45199999 0.0058546998 0.54718983 -0.51853037 0.75387317
14.618 14.56 -0.456 0.0076108947 0.54846632 -0.49755269 0.7405619
14.436 14.423 -0.449 0.03018412 0.54720098 -0.4935759 0.73753446
14.38 14.458 -0.44800001 0.041469112 0.54628575 -0.47459221 0.72483492
14.264 14.433 -0.44499999 0.055638034 0.54519928 -0.48086151 0.72908545
14.101 14.358 -0.44 0.047071368 0.5448581 -0.47691333 0.72562551
13.988 14.332 -0.43700001 0.05302994 0.54411513 -0.47756502 0.72590756
13.862 14.293 -0.433 0.048957642 0.54407972 -0.51064467 0.74778175
13.863 14.384 -0.435 0.053799473 0.54339457 -0.46536613 0.71745223
13.811 14.375 -0.43399999 0.047777563 0.54392183 -0.47037765 0.72068632
13.688 14.338 -0.43000001 0.042982727 0.54434443 -0.48960593 0.73339778
13.582 14.317 -0.42699999 0.02295916 0.54467618 -0.4928869 0.73493999
13.544 14.367 -0.428 0.010113316 0.54492229 -0.49144614 0.73386776
13.583 14.498 -0.43099999 0.019046696 0.54583222 -0.49737227 0.73869801
13.643 14.655 -0.43599999 0.038090445 0.54619312 -0.51449353 0.75131983
13.623 14.725 -0.43799999 0.039087132 0.54643583 -0.51666802 0.75303769
13.223 14.338 -0.41999999 0.0073890374 0.53976923 -0.56399894 0.78070498
13.202 14.406 -0.421 0.015950277 0.53445226 -0.59808886 0.80224931
13.181 14.474 -0.42199999 0.023660015 0.5363732 -0.58993298 0.79766971
13.21 14.599 -0.426 0.020356519 0.53559917 -0.59804571 0.80308127
12.853 14.294 -0.41100001 0.081157342 0.5118528 -0.65969574 0.83891493
12.834 14.364 -0.412 0.080824792 0.51388156 -0.65478969 0.8362754
12.723 14.33 -0.40900001 0.10431948 0.50230759 -0.67476809 0.8476482
12.643 14.286 -0.40599999 0.11740676 0.50017035 -0.67204183 0.84592843
12.572 14.295 -0.405 0.13993213 0.49134299 -0.67938167 0.85003436
12.49 14.293 -0.403 0.15428813 0.4912346 -0.66818637 0.84355754
12.476 14.368 -0.405 0.17027394 0.47001344 -0.70560956 0.8647489
12.464 14.445 -0.40599999 0.1899713 0.46757278 -0.69551766 0.8593359
12.42 14.485 -0.40599999 0.21474901 0.45316821 -0.70224732 0.86291939
12.383 14.535 -0.40700001 0.23256351 0.44032076 -0.70944482 0.86676419
12.248 14.469 -0.40200001 0.25214288 0.43166515 -0.70223874 0.86200356
12.311 14.589 -0.40700001 0.2589896 0.41401616 -0.72736102 0.87609303
12.201 14.551 -0.403 0.29358771 0.39633709 -0.71385014 0.86767441
12.233 14.683 -0.40700001 0.29775596 0.37549675 -0.74128973 0.88270432
12.14 14.664 -0.405 0.351082 0.336923 -0.72062558 0.86952686
12.087 14.694 -0.405 0.36308533 0.32189706 -0.72117841 0.86922204
11.988 14.667 -0.40200001 0.37068835 0.31118554 -0.72126245 0.86859989
11.998 14.775 -0.405 0.39770243 0.27373379 -0.71873355 0.86583793
11.956 14.77 -0.40400001 0.4036119 0.2680096 -0.71388513 0.86276513
11.956 14.865 -0.40599999 0.4166646 0.24347296 -0.71453553 0.86223519
11.926 14.923 -0.40700001 0.43216226 0.2189641 -0.70607144 0.85629809
11.936 15.032 -0.41 0.44234923 0.19009146 -0.70794594 0.85615128
11.909 15.095 -0.41100001 0.45717147 0.16959906 -0.6894725 0.8444773
11.948 15.242 -0.41499999 0.46710613 0.13173123 -0.68755579 0.84159029
11.933 15.322 -0.417 0.47543752 0.10556258 -0.67718691 0.83412611
11.963 15.41 -0.41999999 0.47469798 0.076201916 -0.68616402 0.83783412
11.985 15.54 -0.42399999 0.48063785 0.038704146 -0.67307341 0.82797259
11.998 15.658 -0.42699999 0.48164079 0.020129982 -0.66849124 0.82417446
11.993 15.753 -0.42899999 0.47598189 0.0066359378 -0.68050301 0.83047402
11.954 15.805 -0.43000001 0.47911957 -0.00066087395 -0.67019427 0.82384247
11.986 15.951 -0.43399999 0.48404968 -0.017636497 -0.64996457 0.81059796
11.911 15.955 -0.433 0.48673981 -0.017736796 -0.64079368 0.80488926
12.072 16.275999 -0.44400001 0.48628372 -0.031371754 -0.63550842 0.80082893
12.09 16.354 -0.447 0.48830315 -0.030870508 -0.62866771 0.79662788
12.14 16.528999 -0.45199999 0.48687842 -0.042387001 -0.62519372 0.79354548
12.17 16.68 -0.45699999 0.48603481 -0.038317285 -0.63071162 0.79717952
12.246 16.893999 -0.463 0.48139811 -0.022659898 -0.65467 0.81292707
12.206 16.951 -0.46399999 0.4809182 -0.014758397 -0.65979815 0.81659883
12.169 17.011999 -0.465 0.48046139 -0.012800671 -0.66178107 0.81790048
12.208 17.18 -0.47 0.47832891 -0.012326069 -0.66750854 0.82129055
12.242 17.285999 -0.47400001 0.47887343 -0.013942316 -0.66511357 0.8196891
12.254 17.417 -0.477 0.47604951 -0.01098761 -0.6733532 0.82471108
12.283 17.575001 -0.48199999 0.48177356 -0.0058008805 -0.65979689 0.81698918
19.528999 14.115 -0.72500002 0.096044764 0.53101146 -0.64328492 0.83965069
19.465 14.162 -0.72399998 0.078824595 0.53262198 -0.6465075 0.84135097
19.410999 14.216 -0.72399998 0.085307717 0.53310513 -0.64314377 0.83970976
19.459 14.346 -0.72799999 0.10326133 0.53752768 -0.62096012 0.82776225
19.143999 14.207 -0.71499997 -0.044005387 0.53954589 -0.6194976 0.82269287
19.098 14.266 -0.71499997 -0.038560949 0.54401326 -0.60499072 0.81452513
18.951 14.202 -0.70899999 -0.017708549 0.5529235 -0.56196439 0.78856957
18.841 14.212 -0.70599997 0.0029829107 0.55544782 -0.54791677 0.78022045
18.754999 14.24 -0.704 0.022550881 0.55742824 -0.52345705 0.76501119
18.329 14.007 -0.685 0.038467914 0.55405325 -0.51857311 0.75985056
18.242001 14.031 -0.68300003 0.051617235 0.55314726 -0.52032572 0.76116693
18.274 14.148 -0.68699998 0.051352985 0.5538944 -0.51774341 0.75993049
18.200001 14.136 -0.68400002 0.057385903 0.55325961 -0.51562214 0.75845605
18.125 14.169 -0.68300003 0.074301921 0.55141944 -0.51901996 0.76089811
18.002001 14.164 -0.67900002 0.089797243 0.54841721 -0.52913183 0.76733661
17.938999 14.206 -0.67799997 0.098867968 0.54691881 -0.53054333 0.7683562
17.950001 14.307 -0.68099999 0.10243535 0.54667848 -0.53379911 0.77090323
17.775999 14.26 -0.67500001 0.11093433 0.54254723 -0.5509879 0.78118604
17.677999 14.273 -0.67199999 0.11182733 0.54142392 -0.55711681 0.78487217
17.829 14.487 -0.68199998 0.10541835 0.54563099 -0.54628903 0.77926761
17.549 14.305 -0.66900003 0.096495904 0.54417777 -0.55455226 0.78292346
17.341999 14.227 -0.66100001 0.10025451 0.53355551 -0.60574907 0.81342757
17.216999 14.215 -0.65700001 0.088521443 0.53061366 -0.62366092 0.82361388
17.114 14.22 -0.65399998 0.083195902 0.52851063 -0.63295907 0.82878357
17.028999 14.241 -0.65200001 0.083012924 0.52544659 -0.64267325 0.83427465
16.975 14.286 -0.65100002 0.08288902 0.52675307 -0.63856012 0.8319245
17.052 14.443 -0.65700001 0.087332658 0.53835058 -0.5937025 0.80618298
16.871 14.335 -0.64899999 0.091065645 0.53217882 -0.61382604 0.81748986
16.738001 14.313 -0.64499998 0.10153519 0.52812386 -0.62140536 0.82180828
16.628 14.309 -0.64200002 0.086198278 0.53015894 -0.62154901 0.82147539
16.555 14.336 -0.63999999 0.087325498 0.53520906 -0.59929866 0.80822855
16.434 14.323 -0.63599998 0.084425122 0.53728122 -0.58793616 0.80091673
16.392 14.377 -0.63700002 0.083903752 0.54135239 -0.56410444 0.78633076
16.603001 14.655 -0.64999998 0.097210042 0.42755154 -0.81803429 0.92813265
16.323999 14.499 -0.63800001 0.072540835 0.5419715 -0.57242531 0.7916224
16.127001 14.369 -0.62900001 0.07700821 0.54208708 -0.55967999 0.7829625
16.041 14.384 -0.62699997 0.081391692 0.54406905 -0.53332663 0.76620686
16.069 14.5 -0.63 0.081874952 0.54614955 -0.48894823 0.73759961
16.000999 14.53 -0.62900001 0.08323212 0.54521126 -0.4657672 0.72188777
15.909 14.538 -0.62699997 0.070005804 0.54731631 -0.48057249 0.73171437
15.905 14.626 -0.62900001 0.067213163 0.54822749 -0.48089653 0.73234725
15.762 14.586 -0.62400001 0.053575151 0.54729897 -0.45340854 0.71273118
15.672 14.549 -0.62 0.038505621 0.54834569 -0.45937395 0.71637285
15.407 14.393 -0.60900003 0.019927418 0.54698712 -0.45422792 0.71127701
15.294 14.377 -0.60500002 0.0072627803 0.54705769 -0.45955536 0.714504
15.354 14.525 -0.611 0.011083362 0.5474025 -0.45180464 0.70985895
15.099 14.373 -0.60000002 -0.013762096 0.54634666 -0.46783671 0.71941316
15.064 14.43 -0.60000002 -0.015229659 0.54626548 -0.46402153 0.71690577
15.436 14.882 -0.62300003 0.02341282 0.55103987 -0.46938062 0.72423148
14.884 14.393 -0.59399998 -0.020769708 0.54573119 -0.47089177 0.72110534
14.588 14.195 -0.58099997 0.0071698558 0.54503822 -0.53122562 0.76112986
14.58 14.277 -0.583 0.001428864 0.54574054 -0.52594769 0.75792861
14.52 14.307 -0.58200002 0.021248221 0.54624337 -0.47463119 0.72395307
14.364 14.243 -0.57599998 0.038204908 0.54505694 -0.4736076 0.72308421
14.252 14.22 -0.57200003 0.032586522 0.54518646 -0.48149648 0.72809958
14.225 14.283 -0.57300001 0.043325242 0.54453075 -0.47028115 0.72080177
14.29 14.394 -0.57800001 0.055308051 0.54353225 -0.45616525 0.71173942
14.121 14.313 -0.57099998 0.04963259 0.54264247 -0.45088178 0.70726138
14.173 14.456 -0.57599998 0.055547062 0.54208565 -0.44055325 0.70073497
14.105 14.478 -0.57499999 0.056118973 0.54182673 -0.43847468 0.69927508
13.907 14.364 -0.56699997 0.045853093 0.54354197 -0.46089336 0.71411699
13.718 14.257 -0.55900002 0.034926549 0.5434643 -0.4676815 0.71784353
13.664 14.292 -0.55800003 0.033981863 0.54383832 -0.47336996 0.72179914
13.731 14.407 -0.56300002 0.043139569 0.54404235 -0.46975648 0.72007936
13.659 14.421 -0.56199998 0.030267581 0.54471123 -0.47406775 0.72274935
13.632 14.485 -0.56300002 0.03736376 0.54357046 -0.45608211 0.71054614
13.455 14.386 -0.55500001 0.005088062 0.54436296 -0.47818363 0.72458023
13.413 14.432 -0.55599999 0.0063525354 0.54482281 -0.51006359 0.74634922
13.348 14.452 -0.55400002 0.0023875041 0.5447185 -0.51157278 0.74728221
13.379 14.578 -0.55900002 0.0035500759 0.54559433 -0.50986022 0.74675512
13.267 14.548 -0.55500001 0.018923914 0.54348218 -0.54281741 0.768363
13.309 14.64 -0.55900002 0.016245052 0.54498959 -0.53192031 0.76171958
13.121 14.524 -0.551 0.027477833 0.54080111 -0.56209618 0.78049535
13.027 14.511 -0.54799998 0.037449751 0.53853673 -0.57398504 0.78796136
12.817 14.367 -0.53799999 0.072270148 0.53319538 -0.58211881 0.79270589
12.643 14.262 -0.53100002 0.12411249 0.52349859 -0.5798648 0.79101068
12.699 14.416 -0.537 0.12557386 0.51477325 -0.62365776 0.81835765
12.525 14.308 -0.52899998 0.1581223 0.50743324 -0.6127317 0.81112963
12.514 14.341 -0.52999997 0.16628782 0.5035997 -0.61811543 0.8144514
12.822 14.789 -0.551 0.11440306 0.49935347 -0.68389022 0.85448682
12.388 14.379 -0.528 0.20954148 0.48263267 -0.63210905 0.8224377
12.397 14.574 -0.53399998 0.24330471 0.45890847 -0.65602678 0.83675885
12.17 14.397 -0.523 0.29088244 0.43279243 -0.63999242 0.8255375
12.09 14.394 -0.52100003 0.32052153 0.41080329 -0.63657653 0.82263178
12.239 14.618 -0.53100002 0.29094061 0.42710268 -0.65863097 0.83717257
12.424 14.935 -0.54500002 0.34335482 0.36942831 -0.68972421 0.85445261
12.235 14.801 -0.53600001 0.35688508 0.35783872 -0.68201095 0.84885478
12.069 14.694 -0.52899998 0.38391259 0.33043814 -0.67083812 0.84059626
12.087 14.811 -0.53299999 0.39991507 0.30918708 -0.67115384 0.84022391
12.107 14.932 -0.537 0.42096782 0.26710212 -0.68280232 0.84544456
11.948 14.829 -0.52999997 0.42959696 0.26474494 -0.6627835 0.83302188
11.92 14.89 -0.53100002 0.4439705 0.23683134 -0.66088116 0.83064002
11.935 14.957 -0.53399998 0.45256329 0.22141682 -0.65598094 0.82713354
11.931 15.05 -0.53600001 0.46613589 0.18363397 -0.65577048 0.82525086
11.889 15.093 -0.537 0.47235012 0.16374058 -0.65362072 0.82288861
11.892 15.195 -0.54000002 0.48135963 0.13446827 -0.64642781 0.81710327
11.948 15.367 -0.546 0.48808032 0.08633431 -0.64684725 0.81491554
11.944 15.461 -0.54900002 0.48888442 0.05602986 -0.64891702 0.81439584
11.969 15.596 -0.55400002 0.49115646 0.030949689 -0.64114332 0.80824333
12.016 15.708 -0.55800003 0.49315259 0.020912884 -0.63323969 0.80288815
11.987 15.773 -0.56 0.49478808 0.0071927644 -0.62324369 0.79580128
12.067 15.983 -0.56800002 0.49586767 -0.016247697 -0.60851806 0.78513885
11.926 15.899 -0.56199998 0.50104809 -0.0059015341 -0.58886278 0.77320331
12.019 16.129 -0.57099998 0.49946627 -0.023704801 -0.58546603 0.76993436
12.012 16.226 -0.574 0.4979389 -0.027778085 -0.5897339 0.77233464
12.012 16.333 -0.57800001 0.49624982 -0.03086498 -0.59526551 0.77560139
12.09 16.493999 -0.58399999 0.4930968 -0.04614608 -0.59580159 0.77476025
12.151 16.687 -0.59200001 0.49296555 -0.040797979 -0.60109133 0.77845377
12.179 16.837 -0.597 0.4902927 -0.025941964 -0.62331647 0.79346287
12.209 16.99 -0.60299999 0.48982081 -0.016175549 -0.63086879 0.79886264
12.208 17.101999 -0.60600001 0.48587227 -0.02731169 -0.63725305 0.80181623
12.273 17.308001 -0.61400002 0.4837496 -0.010876492 -0.65255457 0.81237888
19.6 14.064 -0.86900002 0.028630484 0.53513241 -0.64865327 0.84139019
19.511 14.093 -0.86699998 0.069731481 0.53081608 -0.65412003 0.84528172
19.499001 14.178 -0.86900002 0.069776788 0.53125668 -0.65406555 0.84552008
19.497999 14.271 -0.87099999 0.083708659 0.5335325 -0.64364755 0.84020603
19.295 14.216 -0.86199999 -0.025785647 0.53528804 -0.64255089 0.83670175
19.212999 14.249 -0.86000001 -0.028015489 0.53427988 -0.64544773 0.83835709
19.059999 14.228 -0.85399997 -0.020618079 0.53914911 -0.62975568 0.82927626
18.986 14.266 -0.85299999 -0.0078808181 0.54575163 -0.60753554 0.81670457
18.973 14.303 -0.85299999 -0.0014899243 0.54566675 -0.60991591 0.81838369
18.766001 14.24 -0.84399998 0.019242909 0.55249065 -0.57116997 0.79489076
18.482 14.117 -0.83099997 0.02895594 0.55212659 -0.55782694 0.78539997
18.257 14.037 -0.82099998 0.047452465 0.54970747 -0.56151736 0.78723043
18.254 14.126 -0.82300001 0.046877496 0.55094546 -0.5547238 0.78323489
18.181 14.161 -0.82099998 0.055856351 0.55019242 -0.55560672 0.78391993
18.087999 14.18 -0.81900001 0.06734065 0.54839504 -0.56033432 0.7869221
17.974001 14.136 -0.81300002 0.091501616 0.54293549 -0.57278639 0.79450345
17.922001 14.187 -0.81300002 0.096361093 0.54182988 -0.57549751 0.79628038
18.054001 14.383 -0.82300001 0.075802602 0.54935277 -0.55239314 0.7827341
17.694 14.28 -0.80800003 0.10723685 0.53728062 -0.58885926 0.80431676
17.867001 14.511 -0.81999999 0.10281931 0.54404926 -0.5640614 0.79039657
17.424999 14.244 -0.79699999 0.09969072 0.53019947 -0.62120575 0.82276744
17.410999 14.324 -0.79900002 0.09996222 0.53198403 -0.61541247 0.81959254
17.208 14.203 -0.78899997 0.09357053 0.51888353 -0.65899694 0.84396237
17.122999 14.224 -0.78600001 0.085576676 0.51940745 -0.66049188 0.84460467
17.018 14.228 -0.78299999 0.087715358 0.51900882 -0.65976065 0.84400725
16.931 14.245 -0.78100002 0.081329942 0.5191505 -0.6612125 0.8445909
16.913 14.321 -0.78200001 0.084823735 0.52082264 -0.65597409 0.84187484
16.759001 14.281 -0.77600002 0.096897617 0.51964229 -0.65210289 0.8394376
16.662001 14.29 -0.773 0.088738009 0.52543253 -0.63700002 0.83049548
16.693001 14.361 -0.77600002 0.095139034 0.52288073 -0.64366519 0.83472186
16.646999 14.414 -0.77600002 0.096294269 0.52468759 -0.63755685 0.83129323
16.421 14.309 -0.76499999 0.084609821 0.52152395 -0.64928436 0.83708799
16.51 14.477 -0.773 0.10281857 0.52620679 -0.62839532 0.82604235
16.604 14.652 -0.78100002 0.096614622 0.46704042 -0.76514721 0.90161598
16.627001 14.765 -0.78500003 0.11965441 0.43524432 -0.80311942 0.92127931
16.215 14.491 -0.764 0.081635326 0.5394637 -0.57882613 0.7954402
16.219999 14.542 -0.76499999 0.079509407 0.54342657 -0.55485189 0.78070146
16.056 14.486 -0.75800002 0.085123211 0.54307467 -0.54715097 0.77559668
15.761 14.311 -0.74299997 0.056661353 0.53735489 -0.59595245 0.80443776
15.833 14.467 -0.75 0.062774532 0.54703867 -0.522241 0.75889897
15.671 14.41 -0.74299997 0.054385759 0.54687381 -0.52971637 0.76330084
15.601 14.436 -0.74199998 0.045765694 0.54700446 -0.5375219 0.7682696
15.633 14.557 -0.74599999 0.044409133 0.54816663 -0.46134281 0.71784121
15.429 14.413 -0.73500001 0.0050728675 0.5467298 -0.54233819 0.77011037
15.347 14.427 -0.73299998 0.0022449559 0.54655451 -0.54307997 0.77049512
15.453 14.618 -0.74199998 0.018197751 0.54788119 -0.44797382 0.70794457
15.457 14.714 -0.74599999 0.019944306 0.54897207 -0.45405823 0.71269703
15.551 14.897 -0.75400001 0.032675683 0.55109572 -0.47058934 0.72541612
15.146 14.6 -0.73199999 -0.014011107 0.54765195 -0.4673605 0.72010052
14.758 14.317 -0.71100003 -0.0086691156 0.54546767 -0.52918589 0.76003146
14.708 14.314 -0.70899999 -0.0077524036 0.54492044 -0.53640968 0.76467884
14.585 14.283 -0.704 0.018483989 0.54479039 -0.5416258 0.76843786
14.705 14.492 -0.71499997 -0.0087215994 0.54743481 -0.49872988 0.74060273
14.753 14.63 -0.72100002 -0.007164957 0.54813433 -0.4791109 0.72804517
14.703 14.673 -0.72000003 -0.00035331212 0.54840285 -0.47378269 0.7247178
14.531 14.593 -0.71200001 0.020159518 0.54824507 -0.48515996 0.73236549
14.38 14.532 -0.70599997 0.05678422 0.54570854 -0.47718984 0.72713983
14.145 14.385 -0.69400001 0.052454591 0.54423523 -0.46905178 0.72038394
14.094 14.379 -0.69199997 0.047844581 0.5439769 -0.46256742 0.71565956
14.273 14.653 -0.70599997 0.06901557 0.54303777 -0.44818863 0.70747876
14.257 14.728 -0.708 0.070944786 0.54304689 -0.44656298 0.70664811
13.988 14.543 -0.69400001 0.054169543 0.5432626 -0.44988266 0.70743412
13.847 14.487 -0.68800002 0.039280728 0.54491848 -0.46770832 0.7191872
13.731 14.457 -0.68300003 0.034476556 0.54506767 -0.47871274 0.72625983
13.55 14.356 -0.67400002 0.013223795 0.54458797 -0.51147681 0.74723452
13.504 14.352 -0.67299998 0.0046729185 0.54421318 -0.51603335 0.74998683
13.423 14.357 -0.671 0.0007137116 0.54337901 -0.52872586 0.75816381
13.261 14.273 -0.66299999 0.0037157228 0.5406189 -0.55303007 0.77338535
13.197 14.294 -0.662 0.0038514594 0.54053617 -0.55428749 0.77422792
13.166 14.35 -0.66299999 0.014800752 0.54169238 -0.54720926 0.77012187
13.169 14.445 -0.66600001 0.024468929 0.54400343 -0.52127695 0.75383562
13.187 14.556 -0.67000002 0.029606603 0.54426807 -0.52812457 0.75895971
13.176 14.59 -0.671 0.03200664 0.54405165 -0.53279251 0.76215774
12.907 14.383 -0.65600002 0.047146413 0.53339541 -0.59450549 0.80010641
12.876 14.44 -0.65700001 0.055475201 0.53591222 -0.57860398 0.79060864
12.807 14.453 -0.65499997 0.083052434 0.53011793 -0.59317636 0.7998631
12.592 14.302 -0.64399999 0.13978568 0.51845276 -0.5866459 0.79529035
12.552 14.347 -0.64399999 0.15744698 0.50907189 -0.60782701 0.80833006
12.612 14.507 -0.65100002 0.16744193 0.50384963 -0.62082642 0.81690061
12.699 14.699 -0.66000003 0.14914915 0.5068742 -0.63514417 0.82618099
12.536 14.65 -0.65399998 0.2180088 0.48245144 -0.62705696 0.82066292
12.365 14.543 -0.64499998 0.24681038 0.46778437 -0.62285995 0.81712431
12.385 14.66 -0.64999998 0.27771232 0.44758502 -0.63047487 0.82155645
12.135 14.455 -0.63599998 0.30159721 0.43796593 -0.59865838 0.80072898
12.156 14.573 -0.63999999 0.32596767 0.41639781 -0.61022955 0.8074789
12.318 14.862 -0.65499997 0.36128482 0.36956078 -0.65212303 0.83208555
12.124 14.675 -0.64300001 0.36254606 0.37912235 -0.62097895 0.8128888
12.104 14.745 -0.64499998 0.39212096 0.3400411 -0.63369274 0.81911737
12.066 14.792 -0.64499998 0.41130424 0.31238708 -0.63627315 0.81951225
12.008 14.912 -0.648 0.44474825 0.26289549 -0.62275583 0.80915999
12.008 15.008 -0.65100002 0.46378836 0.21918893 -0.62486756 0.80845714
11.919 14.993 -0.648 0.46541414 0.21005729 -0.62981617 0.81080383
11.991 15.132 -0.65499997 0.47962049 0.18087499 -0.61457872 0.80028659
12.01 15.254 -0.66000003 0.48965102 0.13293104 -0.62019944 0.80129653
11.978 15.312 -0.66100001 0.49478662 0.11101137 -0.6134001 0.79586244
11.98 15.415 -0.66500002 0.49785361 0.076826431 -0.61428767 0.79442424
11.981 15.515 -0.66799998 0.49923629 0.045114152 -0.61204123 0.79111737
12.068 15.73 -0.67799997 0.50113332 0.017270323 -0.60037524 0.78222966
11.975 15.711 -0.67500001 0.50215966 0.01528088 -0.59372056 0.77775443
12.034 15.839 -0.68099999 0.50227672 -0.0018615946 -0.58605129 0.7718429
12.033 15.941 -0.685 0.5031395 -0.014901314 -0.57136995 0.76146895
12.021 16.030001 -0.68800002 0.50168812 -0.025800426 -0.56975329 0.75958902
12.123 16.271999 -0.699 0.5007441 -0.032748658 -0.56878996 0.75851113
12.063 16.297001 -0.69800001 0.50206852 -0.029636461 -0.5628649 0.75482976
12.049 16.386999 -0.70099998 0.49934083 -0.036899734 -0.57239145 0.76048326
12.084 16.542 -0.708 0.49501982 -0.051718011 -0.57880199 0.76336825
12.169 16.712999 -0.71600002 0.49589926 -0.046076853 -0.58038896 0.76478136
12.216 16.888 -0.72299999 0.49711072 -0.022090361 -0.59775329 0.77776349
12.184 16.955999 -0.72500002 0.49579826 -0.033412583 -0.59373832 0.77424639
12.225 17.240999 -0.736 0.49513799 -0.042963088 -0.58541685 0.76793253
19.433001 14.105 -1.002 -0.0086097978 0.53124744 -0.65735579 0.84523052
19.514 14.211 -1.0089999 0.0024151877 0.53577298 -0.64768487 0.84056783
19.441999 14.252 -1.007 -0.0010819752 0.53386319 -0.65375042 0.84403831
19.382999 14.303 -1.006 0.0095770992 0.53295267 -0.65809101 0.84688491
19.110001 14.194 -0.99199998 -0.011278991 0.54107535 -0.6243664 0.82627064
19.093 14.275 -0.99400002 -0.004290916 0.53940654 -0.63359326 0.83211672
19.016001 14.31 -0.991 0.0075890133 0.54035228 -0.63194019 0.8314966
18.879 14.3 -0.986 0.0074306205 0.54540193 -0.6107735 0.81887895
18.983 14.473 -0.995 0.012169374 0.53971338 -0.63762844 0.83546913
18.353001 14.038 -0.95700002 0.043290671 0.54489613 -0.59349382 0.8068586
18.249001 14.049 -0.95300001 0.051395349 0.54581046 -0.58440149 0.80129623
18.171 14.08 -0.95099998 0.059512556 0.54489511 -0.58572173 0.80219847
18.124001 14.135 -0.95099998 0.059315138 0.54414541 -0.59038162 0.80508566
18.028 14.151 -0.94700003 0.081885993 0.5421043 -0.58699071 0.80320638
17.934 14.169 -0.94400001 0.094919562 0.53947639 -0.58973116 0.80487722
17.806999 14.159 -0.93900001 0.098773435 0.5341686 -0.60903502 0.81609803
17.871 14.256 -0.94400001 0.096169472 0.53821969 -0.59591424 0.80872911
17.809 14.298 -0.94300002 0.10631974 0.53374112 -0.6084007 0.81629336
17.563 14.192 -0.93000001 0.092652425 0.53145784 -0.62140936 0.82291043
17.372999 14.128 -0.921 0.089845613 0.52272272 -0.64950883 0.83855414
17.326 14.18 -0.921 0.093247876 0.52065104 -0.65440327 0.84143704
17.261 14.218 -0.91900003 0.087919891 0.51915658 -0.66111404 0.84517759
17.159 14.225 -0.91600001 0.091136649 0.51640081 -0.6667667 0.84826499
17.089001 14.212 -0.91299999 0.085454941 0.51532418 -0.67124355 0.85054654
16.973 14.206 -0.90799999 0.083415195 0.51543492 -0.67033064 0.84969074
16.907 14.241 -0.90600002 0.086202696 0.51699626 -0.66495436 0.84668791
16.839001 14.275 -0.90499997 0.097616658 0.51839864 -0.65564257 0.8415066
16.718 14.263 -0.89999998 0.087643981 0.50965446 -0.68259811 0.85636985
16.601999 14.254 -0.89499998 0.08659406 0.51015782 -0.68098021 0.85527396
16.601 14.344 -0.898 0.087923735 0.51159883 -0.67791986 0.85383797
16.594999 14.384 -0.89899999 0.091228142 0.51284695 -0.67386895 0.85172409
16.356001 14.267 -0.88599998 0.082203008 0.51215595 -0.67547172 0.851659
16.434999 14.427 -0.89499998 0.092670441 0.51391721 -0.66961211 0.84916377
16.516001 14.59 -0.903 0.10061184 0.51438439 -0.66776162 0.84889317
16.431999 14.609 -0.90100002 0.08887092 0.51563752 -0.66923976 0.84950686
16.296 14.579 -0.89399999 0.085273452 0.5258342 -0.63847756 0.83152074
16.115999 14.51 -0.88499999 0.076953128 0.52957284 -0.62663293 0.82403761
15.953 14.408 -0.87599999 0.069055468 0.52571434 -0.64025402 0.83130586
15.76 14.323 -0.866 0.049332004 0.51780379 -0.66747648 0.84621471
15.722 14.379 -0.866 0.039119765 0.5240826 -0.65181255 0.8372888
15.843 14.582 -0.87800002 0.081109166 0.54079884 -0.57131231 0.79084754
15.841 14.672 -0.88099998 0.067223258 0.54852039 -0.50241792 0.74687177
15.399 14.352 -0.85399997 0.00033007562 0.5274533 -0.63978189 0.82917303
15.753 14.776 -0.88099998 0.046691827 0.54989845 -0.46869481 0.72404641
15.438 14.617 -0.86400002 0.00038814917 0.54863554 -0.53256088 0.76460594
15.305 14.583 -0.85799998 0.00018600561 0.54768127 -0.53774732 0.76754612
15.111 14.488 -0.84799999 -0.011433084 0.54219818 -0.57323313 0.7891171
14.985 14.458 -0.84200001 -0.0096546002 0.5400787 -0.58357185 0.79519457
15.026 14.589 -0.84799999 -0.015206074 0.5472188 -0.52798301 0.76055616
14.806 14.465 -0.83600003 0.0019154362 0.54406977 -0.55833805 0.77958769
14.572 14.327 -0.82300001 0.024893101 0.5447033 -0.54365999 0.76999187
14.496 14.296 -0.81900001 0.038554262 0.54302531 -0.55230677 0.77550352
14.544 14.435 -0.82499999 0.028960001 0.54636097 -0.52835691 0.76059848
14.307 14.288 -0.81199998 0.053956922 0.54106385 -0.55757183 0.77881175
14.434 14.506 -0.824 0.055611126 0.545977 -0.50825679 0.74800295
14.157 14.316 -0.80699998 0.052256823 0.54257542 -0.54286081 0.76929623
14.051 14.299 -0.80299997 0.036310334 0.54146308 -0.55863458 0.77882814
13.966 14.302 -0.80000001 0.02385756 0.54116923 -0.56225294 0.78074431
13.935 14.315 -0.80000001 0.019503558 0.54128695 -0.56171644 0.78031874
13.936 14.406 -0.80299997 0.032241978 0.5452745 -0.51949209 0.75381422
13.953 14.607 -0.81099999 0.047143906 0.54593372 -0.47811836 0.72722995
13.948 14.694 -0.81400001 0.04886803 0.54540873 -0.46146798 0.7161085
13.878 14.713 -0.81199998 0.050692149 0.54530638 -0.46291289 0.7170893
13.81 14.733 -0.81099999 0.042376213 0.54529977 -0.45767456 0.71317148
13.696 14.703 -0.80500001 0.034129821 0.54673135 -0.48843044 0.73392391
13.749 14.807 -0.81099999 0.042125665 0.54572809 -0.45922321 0.71447855
13.61 14.75 -0.80400002 0.029934067 0.5462181 -0.46809867 0.71997684
13.295 14.499 -0.78399998 -0.00079156086 0.54421175 -0.52405781 0.75551546
13.107 14.384 -0.77399999 0.015407124 0.53474492 -0.5946309 0.79985964
13.382 14.78 -0.79799998 0.0039500827 0.54682332 -0.48980591 0.73412615
12.837 14.266 -0.75999999 0.061466008 0.52880108 -0.60677069 0.8072046
12.741 14.249 -0.75599998 0.094155811 0.52292144 -0.61225635 0.81066018
12.718 14.268 -0.75599998 0.099361934 0.52258694 -0.61014295 0.80947161
12.728 14.371 -0.75999999 0.10488828 0.52273387 -0.60780579 0.80850482
12.601 14.317 -0.75400001 0.14607421 0.51017362 -0.61660498 0.81352109
12.513 14.307 -0.75099999 0.16282779 0.50534105 -0.61452281 0.81210881
12.469 14.348 -0.75099999 0.18300752 0.49633908 -0.62240851 0.81684548
12.553 14.537 -0.76099998 0.19384049 0.49158165 -0.62947583 0.8218677
12.598 14.683 -0.76800001 0.20330381 0.49260655 -0.61505067 0.81380647
12.281 14.357 -0.745 0.25054708 0.46950206 -0.60302448 0.80426645
12.365 14.548 -0.755 0.25588709 0.46294779 -0.6216802 0.8162629
12.345 14.618 -0.75700003 0.28089458 0.44738442 -0.62298143 0.81679893
12.139 14.465 -0.745 0.30572179 0.43770173 -0.58707654 0.79354107
12.289 14.738 -0.75999999 0.3347047 0.40768415 -0.61911988 0.81335294
12.152 14.809 -0.75800002 0.40046349 0.33915922 -0.61180091 0.80603993
12.055 14.785 -0.75400001 0.41434431 0.32441339 -0.59774959 0.79638547
11.882 14.666 -0.74400002 0.42345858 0.31343508 -0.58573759 0.7878117
11.971 14.872 -0.755 0.45173365 0.25947681 -0.6010341 0.79538262
11.871 14.842 -0.75099999 0.45563865 0.25236073 -0.59702826 0.79229748
11.969 15.062 -0.76300001 0.47764412 0.19594002 -0.60250914 0.79344416
11.953 15.139 -0.76499999 0.48565295 0.17276773 -0.59762418 0.78921616
11.955 15.191 -0.76700002 0.49098009 0.15350401 -0.5951035 0.78662133
11.907 15.228 -0.76700002 0.49636161 0.13032532 -0.59041762 0.78227395
11.908 15.329 -0.77100003 0.50248063 0.087583289 -0.58726048 0.77783835
11.958 15.494 -0.77899998 0.50637484 0.055319685 -0.57526386 0.76837766
11.965 15.605 -0.78399998 0.5055393 0.024276195 -0.57726502 0.76772016
11.989 15.738 -0.79000002 0.50768542 0.007312417 -0.55438882 0.7517612
12.046 15.917 -0.79900002 0.50747919 -0.014931329 -0.53215069 0.73548788
11.995 15.953 -0.79900002 0.50741106 -0.016295206 -0.52945077 0.73351866
12.067 16.101999 -0.80699998 0.50565249 -0.025959898 -0.53558785 0.73702967
12.078 16.223 -0.81199998 0.50586367 -0.02349221 -0.53793675 0.73880029
12.077 16.329 -0.81599998 0.50520742 -0.029551867 -0.53313303 0.73507732
12.042 16.389 -0.81800002 0.50595796 -0.027355101 -0.52771389 0.73158985
12.069 16.535 -0.824 0.50138175 -0.04427838 -0.54323083 0.74057001
12.033 16.594 -0.82599998 0.49989009 -0.05204954 -0.54045886 0.73803455
12.097 16.794001 -0.83600003 0.50082541 -0.046484306 -0.54215848 0.73954219
12.353 17.207001 -0.86000001 0.49558634 -0.055911437 -0.56523335 0.75380409
19.49 14.076 -1.156 0.0008999072 0.53024304 -0.66140234 0.8477096
19.459999 14.147 -1.1569999 -0.0058489684 0.53135568 -0.65828145 0.84599501
19.393 14.192 -1.156 -0.015421331 0.53184557 -0.65561759 0.84435302
19.202 14.145 -1.146 0.0032368768 0.52951819 -0.6635673 0.84895325
19.197001 14.188 -1.147 0.0013262387 0.53005356 -0.66238391 0.84835786
19.011 14.144 -1.137 0.0062382296 0.53044391 -0.65979147 0.84660167
18.954 14.194 -1.136 0.0064413613 0.53381717 -0.65025663 0.84132987
18.83 14.193 -1.13 0.0094937235 0.53174329 -0.65590608 0.84442514
18.798 14.262 -1.131 0.0098312646 0.53306967 -0.65272105 0.84279579
18.669001 14.257 -1.125 0.015093919 0.53664994 -0.63912827 0.83468914
18.275 14.048 -1.1 0.049876139 0.53831142 -0.61989629 0.82251942
18.259001 14.082 -1.101 0.052900247 0.53866494 -0.61786294 0.82140911
18.18 14.112 -1.098 0.05731244 0.53924179 -0.61369658 0.81895655
18.209999 14.227 -1.104 0.048291579 0.53862071 -0.62137151 0.82373959
18.09 14.225 -1.098 0.0693409 0.53824806 -0.61447167 0.81981373
17.898001 14.165 -1.0880001 0.084094293 0.532278 -0.62646842 0.82635003
17.844 14.214 -1.087 0.080021039 0.53338605 -0.62449485 0.82516539
17.66 14.159 -1.077 0.093730919 0.52906668 -0.6300863 0.82807356
17.605 14.161 -1.075 0.086293273 0.52754539 -0.63867539 0.83286071
17.544001 14.202 -1.073 0.085931055 0.52621669 -0.64300328 0.83530915
17.417 14.19 -1.067 0.083512276 0.52199614 -0.65548521 0.84208977
17.301001 14.187 -1.062 0.080600977 0.51901424 -0.66413862 0.84673041
17.193001 14.189 -1.057 0.083603874 0.51062554 -0.68417037 0.85779786
17.091999 14.196 -1.053 0.077527933 0.5030551 -0.70289606 0.86783516
17.002001 14.212 -1.05 0.082886949 0.49840537 -0.71084249 0.87210965
16.945999 14.211 -1.048 0.08145611 0.49716648 -0.71333361 0.87330085
16.85 14.22 -1.044 0.079398163 0.49907568 -0.70951152 0.87108392
16.764 14.238 -1.041 0.079700932 0.49563569 -0.7162956 0.87469214
16.648001 14.23 -1.035 0.090951696 0.49344277 -0.71675968 0.87492996
16.535999 14.225 -1.03 0.091869399 0.49360907 -0.71510899 0.87376815
16.462999 14.252 -1.028 0.084245846 0.49825081 -0.70777249 0.86965114
16.396999 14.285 -1.027 0.090821378 0.49985486 -0.70206225 0.86659956
16.292999 14.286 -1.022 0.087538183 0.50070167 -0.7007603 0.86569631
16.216999 14.264 -1.018 0.088059239 0.50173849 -0.69727677 0.86353391
16.104 14.255 -1.013 0.083169602 0.501095 -0.69953918 0.86450475
16.386 14.596 -1.038 0.096372001 0.5142864 -0.6690858 0.84938437
16.159 14.485 -1.024 0.078601003 0.50120139 -0.70405018 0.86779469
16.087 14.512 -1.022 0.073154703 0.51170278 -0.68141609 0.85528898
16.195999 14.703 -1.034 0.073383071 0.53265899 -0.62105066 0.82147098
15.715 14.357 -1.001 0.046790589 0.5121491 -0.68305707 0.85501635
15.732 14.418 -1.0039999 0.045511819 0.51220012 -0.68400848 0.85573822
15.459 14.439 -0.99299997 0.011353865 0.52176219 -0.65987551 0.84130871
15.394 14.468 -0.99199998 0.005457147 0.52745521 -0.64220089 0.83106005
15.413 14.578 -0.99699998 0.0067978362 0.53173715 -0.62977785 0.82426375
15.401 14.658 -0.99900001 0.0091877552 0.54087824 -0.59323531 0.80284601
15.084 14.403 -0.97600001 -0.0056000352 0.53202343 -0.62117422 0.81788611
15.032 14.443 -0.97600001 -0.00040454976 0.53437555 -0.6130895 0.81328726
14.732 14.425 -0.963 0.0096050566 0.53240919 -0.61935139 0.81679124
14.698 14.574 -0.96700001 0.01219857 0.54306 -0.57058102 0.78779799
14.699 14.666 -0.97100002 0.0066315224 0.54623246 -0.54909855 0.77454704
14.558 14.572 -0.96200001 0.024032511 0.54510808 -0.55241877 0.77645791
14.448 14.553 -0.95700002 0.05047081 0.54273158 -0.56021988 0.78163368
14.141 14.334 -0.93599999 0.0441425 0.53665805 -0.58940578 0.79834175
14.01 14.292 -0.92900002 0.025696497 0.53745842 -0.58602321 0.79557842
13.986 14.357 -0.93000001 0.033963166 0.53616524 -0.59356964 0.80059451
13.931 14.391 -0.93000001 0.025238153 0.53784543 -0.58624649 0.79598969
13.75 14.294 -0.91900003 0.020500796 0.53665489 -0.58792728 0.79628968
13.729 14.317 -0.91900003 0.016982025 0.53682745 -0.58750767 0.79601341
13.781 14.461 -0.92699999 0.016314248 0.53892386 -0.58058918 0.79233128
13.754 14.524 -0.92799997 0.018471064 0.53981781 -0.57681316 0.79022646
13.45 14.293 -0.90700001 -0.0016162228 0.53114629 -0.60995823 0.8088066
13.384 14.313 -0.90499997 -0.003958676 0.52812952 -0.62170655 0.81575459
13.332 14.348 -0.90499997 0.0023333048 0.53006756 -0.61520803 0.81207019
13.61 14.739 -0.93099999 0.028551046 0.5465982 -0.5170635 0.75295377
13.58 14.753 -0.93099999 0.022973811 0.5471434 -0.49865261 0.74064034
13.294 14.533 -0.91100001 -0.00057223346 0.53776783 -0.58282876 0.79302198
13.08 14.39 -0.89700001 0.014056731 0.52911836 -0.6195336 0.81485319
12.963 14.353 -0.89099997 0.030633148 0.52645797 -0.62710261 0.81936204
13.084 14.578 -0.90499997 0.016395869 0.53526533 -0.59682727 0.80186069
12.842 14.4 -0.88800001 0.062659986 0.52289695 -0.63262445 0.8231411
12.96 14.624 -0.90200001 0.03838215 0.53133553 -0.6125679 0.81180668
12.711 14.389 -0.88300002 0.10232946 0.51779425 -0.62920582 0.82126868
12.689 14.455 -0.88499999 0.12132028 0.51455516 -0.62817204 0.82102722
12.515 14.348 -0.87400001 0.17068854 0.49882805 -0.62959409 0.82118982
12.483 14.402 -0.875 0.1900342 0.49003953 -0.63575518 0.82488573
12.485 14.496 -0.87900001 0.20681804 0.48310691 -0.63749605 0.82617629
12.63 14.758 -0.89499998 0.19863996 0.49828899 -0.60241437 0.80663055
12.253 14.41 -0.86699998 0.27571133 0.45111638 -0.615785 0.81161189
12.531 14.782 -0.89300001 0.27092817 0.4598906 -0.60764372 0.80878448
12.35 14.663 -0.88099998 0.30540946 0.43411809 -0.61016285 0.80872256
12.219 14.6 -0.87400001 0.32813847 0.41309202 -0.61602253 0.81105089
12.232 14.709 -0.87900001 0.35447246 0.39323416 -0.6054424 0.80426633
12.24 14.812 -0.884 0.38822433 0.35901213 -0.60025728 0.79994792
12.037 14.661 -0.87 0.39294857 0.35376376 -0.5917418 0.79354632
11.935 14.631 -0.86500001 0.40524882 0.33778694 -0.59063447 0.79194427
11.95 14.743 -0.87 0.42885131 0.30853349 -0.57631373 0.78182089
11.943 14.781 -0.87199998 0.44096091 0.28786889 -0.57880342 0.78251415
11.902 14.827 -0.87199998 0.45505005 0.26047227 -0.58098155 0.78259563
11.867 14.878 -0.87300003 0.46456051 0.24125943 -0.57792562 0.77975678
11.851 14.954 -0.87599999 0.47426048 0.21550754 -0.58209288 0.78115213
11.921 15.139 -0.88700002 0.49473864 0.1563656 -0.56886232 0.7699486
11.857 15.156 -0.88499999 0.49995664 0.13717185 -0.5577938 0.76151603
11.853 15.25 -0.889 0.50568807 0.10388068 -0.55256605 0.75620162
11.962 15.439 -0.90100002 0.5092507 0.065568618 -0.55142754 0.75346386
11.985 15.569 -0.90799999 0.50982839 0.034400508 -0.54780215 0.74912989
11.954 15.631 -0.91000003 0.51003897 0.018338092 -0.53702009 0.74085534
11.985 15.773 -0.917 0.50827903 -0.0052366331 -0.53498846 0.73796177
12.083 16.004999 -0.93099999 0.50801027 -0.018158302 -0.51492929 0.7235719
12.003 16.004 -0.92799997 0.50753367 -0.0178007 -0.52413094 0.72980857
12.093 16.229 -0.94099998 0.50759393 -0.022344775 -0.51017362 0.72001946
12.145 16.407 -0.95099998 0.50658989 -0.02676655 -0.51854384 0.72542226
12.118 16.424 -0.95099998 0.50676394 -0.025629662 -0.51803142 0.72513664
12.115 16.528 -0.95599997 0.50584191 -0.032405172 -0.50959408 0.71875745
11.98 16.451 -0.94800001 0.50663632 -0.02846371 -0.50018215 0.71251154
12.166 16.816999 -0.97100002 0.50218797 -0.0464532 -0.52442813 0.72758198
12.294 17.106001 -0.98799998 0.4992367 -0.056221437 -0.53138441 0.731278
12.19 17.075001 -0.98299998 0.49915954 -0.058009423 -0.52619863 0.72760588
19.504 14.157 -1.288 0.0084548686 0.52895498 -0.66707528 0.85138375
19.452 14.212 -1.288 -0.0002071429 0.53055573 -0.66247153 0.84873903
19.370001 14.246 -1.285 -0.013894277 0.53136444 -0.65791202 0.84580696
19.191999 14.208 -1.274 0.0044930391 0.5291431 -0.66541237 0.85016835
19.108999 14.193 -1.27 0.01875063 0.52094638 -0.68645352 0.86194843
19.034 14.23 -1.267 0.015378358 0.52367318 -0.67983115 0.85827762
18.951 14.261 -1.2640001 0.014307517 0.52542174 -0.67537796 0.85580844
18.798 14.238 -1.256 0.014056848 0.52855623 -0.66540253 0.84989989
18.677999 14.24 -1.25 0.011861634 0.5265618 -0.66900259 0.85145319
18.344999 14.078 -1.228 0.056283358 0.52929199 -0.65025365 0.84032589
18.261999 14.105 -1.225 0.055146307 0.5318442 -0.64207572 0.83556002
18.238001 14.132 -1.225 0.053518996 0.53377855 -0.63625425 0.83222789
18.177999 14.177 -1.223 0.056025147 0.53396273 -0.63499212 0.83154678
18.132999 14.234 -1.223 0.059967004 0.53452408 -0.63227326 0.83010936
18.030001 14.245 -1.219 0.080043852 0.53278768 -0.6298508 0.82884365
17.882999 14.219 -1.211 0.085841075 0.53092343 -0.63122034 0.82926929
17.778999 14.228 -1.206 0.084859088 0.5300253 -0.6336298 0.83043039
17.686001 14.245 -1.202 0.078284353 0.52725333 -0.6450724 0.83680516
17.605 14.272 -1.199 0.088402122 0.5236482 -0.65167373 0.84065515
17.535 14.26 -1.1950001 0.085613236 0.52395725 -0.65101415 0.84004778
17.493 14.318 -1.196 0.080896765 0.52299607 -0.65623415 0.84303761
17.391001 14.326 -1.191 0.090223283 0.51902246 -0.66274637 0.84661525
17.24 14.292 -1.183 0.081417441 0.51345372 -0.67921245 0.85533214
17.149 14.308 -1.179 0.07653451 0.50455046 -0.70144093 0.86743766
17.056999 14.322 -1.175 0.08417052 0.49900639 -0.71075797 0.87250727
16.934 14.309 -1.169 0.08536765 0.49539167 -0.71671057 0.87542826
16.933001 14.354 -1.17 0.089039788 0.49964827 -0.70727926 0.87052882
16.806 14.337 -1.164 0.079794347 0.48982045 -0.72868168 0.88162816
16.667 14.309 -1.156 0.088738143 0.49155429 -0.72189599 0.87785757
16.584999 14.33 -1.153 0.096678734 0.47973594 -0.74119771 0.8881821
16.474001 14.324 -1.148 0.093972839 0.48947361 -0.72321242 0.87832314
16.388 14.341 -1.1440001 0.090518527 0.4905479 -0.72187346 0.8774578
16.518999 14.501 -1.1569999 0.097373381 0.48651317 -0.72990155 0.88257176
16.407 14.494 -1.152 0.086362869 0.49083984 -0.72431767 0.87921464
16.129 14.339 -1.132 0.086620837 0.49801034 -0.70626134 0.86851746
16.051001 14.36 -1.13 0.079250276 0.49907994 -0.70618284 0.86836374
16.003 14.408 -1.1289999 0.070471212 0.5024116 -0.70187569 0.86603296
16.091999 14.58 -1.141 0.076526143 0.50034952 -0.70744997 0.86988008
15.777 14.384 -1.118 0.052369937 0.50493157 -0.69953525 0.86431938
15.688 14.393 -1.114 0.049555864 0.5072754 -0.69466424 0.86159301
15.503 14.358 -1.104 0.031770334 0.51101631 -0.6868571 0.85669112
15.686 14.621 -1.124 0.044200763 0.51344639 -0.6838274 0.85627151
15.55 14.585 -1.1160001 0.028547492 0.52248973 -0.660532 0.842682
15.372 14.509 -1.105 0.010791428 0.52103919 -0.66255027 0.84295386
15.502 14.724 -1.12 0.021006895 0.53183144 -0.63333696 0.82728577
15.409 14.728 -1.1160001 0.022096936 0.53975159 -0.60104895 0.80813354
15.5 14.862 -1.126 0.017711559 0.55118108 -0.4775534 0.72950089
15.374 14.834 -1.119 0.0073667038 0.5503518 -0.52495557 0.7606048
14.953 14.517 -1.087 0.0014912821 0.52755183 -0.63960344 0.82909936
14.86 14.518 -1.082 0.014356771 0.52848583 -0.63681436 0.82766896
14.841 14.591 -1.085 0.013225472 0.53320694 -0.62066931 0.81836116
14.419 14.354 -1.056 0.046546783 0.53104365 -0.61756814 0.81582129
14.32 14.346 -1.051 0.044610038 0.53181094 -0.61388737 0.81343144
14.244 14.315 -1.0470001 0.04745701 0.53115332 -0.61447442 0.81360608
14.155 14.315 -1.043 0.047175288 0.53249538 -0.60794044 0.80954832
14.085 14.334 -1.04 0.034509592 0.53416783 -0.60315049 0.80642211
14.082 14.421 -1.044 0.038744949 0.53607023 -0.59541702 0.80211836
14.116 14.547 -1.051 0.045826577 0.5363012 -0.5965966 0.80352134
13.952 14.469 -1.041 0.034726627 0.5355925 -0.59890878 0.80421203
13.836 14.439 -1.034 0.02637781 0.53499067 -0.60074228 0.80486149
13.989 14.644 -1.05 0.035827413 0.53887969 -0.5876894 0.79815644
13.948 14.694 -1.051 0.033657961 0.54144788 -0.57430601 0.79001647
13.944 14.783 -1.054 0.052855216 0.54651403 -0.5147472 0.75261939
13.744 14.662 -1.04 0.016006835 0.53924787 -0.5847652 0.79560971
13.744 14.755 -1.045 0.024619978 0.54556006 -0.54010618 0.76808631
13.56 14.65 -1.0319999 0.020539042 0.54031444 -0.5752604 0.78948468
13.543 14.723 -1.035 0.021116108 0.54280746 -0.56050539 0.78054607
13.533 14.759 -1.036 0.023178365 0.54345888 -0.55651885 0.77820176
13.637 14.967 -1.05 0.032975674 0.54122788 -0.41346323 0.68188477
13.285 14.672 -1.022 0.0068675792 0.53862101 -0.58327311 0.7939567
13.036 14.488 -1.003 0.018825386 0.52736974 -0.62778378 0.82011324
12.973 14.509 -1.001 0.026047315 0.52616078 -0.63183647 0.82264268
13.068 14.708 -1.0140001 0.015739212 0.53768021 -0.58829147 0.79714149
12.958 14.677 -1.008 0.031064475 0.53603429 -0.59359717 0.8004095
12.906 14.665 -1.006 0.055913173 0.53050584 -0.61155111 0.81151557
12.779 14.705 -1.002 0.11506679 0.52205741 -0.61046457 0.81145012
12.676 14.68 -0.99699998 0.17357144 0.50524223 -0.61107343 0.81166959
12.376 14.422 -0.97299999 0.2391393 0.47305974 -0.6153245 0.81215602
12.211 14.321 -0.96200001 0.27986398 0.45266452 -0.59715247 0.79988754
12.379 14.611 -0.98199999 0.28390786 0.44466716 -0.6252017 0.81805241
12.34 14.612 -0.98000002 0.29753256 0.43680859 -0.61926126 0.81413263
12.138 14.464 -0.96499997 0.32663748 0.42010856 -0.59140682 0.79557854
12.109 14.522 -0.96700001 0.34755349 0.40310577 -0.58653736 0.79203141
12.328 14.88 -0.99299997 0.38051125 0.37075412 -0.59408677 0.79698592
11.923 14.67 -0.96700001 0.42026049 0.32292822 -0.56957972 0.77802479
11.955 14.804 -0.97399998 0.4429962 0.28567111 -0.5752914 0.78026521
11.944 14.838 -0.97600001 0.44773999 0.27849033 -0.57118177 0.77735227
11.886 14.862 -0.97500002 0.45905846 0.25747162 -0.56642115 0.77321357
11.882 14.952 -0.97899997 0.47660583 0.21983363 -0.55713922 0.76543063
11.846 15.003 -0.98000002 0.48506874 0.1967288 -0.55381209 0.76203787
11.843 15.097 -0.98400003 0.49687758 0.15797722 -0.54474217 0.75404787
11.955 15.339 -1 0.50832438 0.099629149 -0.53463894 0.7444182
11.975 15.465 -1.007 0.51113802 0.064345047 -0.53103477 0.73986506
12.01 15.561 -1.013 0.51152217 0.034842428 -0.5283044 0.73618919
12.053 15.72 -1.023 0.51024598 0.0074261166 -0.52672654 0.7333805
12.024 15.784 -1.025 0.50887227 -0.0063936338 -0.52566922 0.73165566
12.007 15.865 -1.028 0.50781381 -0.015493315 -0.52434599 0.73010522
12.156 16.167999 -1.049 0.50672561 -0.025818694 -0.52044362 0.72684181
12.041 16.120001 -1.0420001 0.50696677 -0.024413411 -0.51709074 0.72456479
12.015 16.191 -1.045 0.50693721 -0.024821572 -0.51601112 0.7237879
12.058 16.302999 -1.052 0.5068965 -0.026730999 -0.50625288 0.71690345
12.121 16.497 -1.064 0.50636506 -0.030393448 -0.49151415 0.70633948
12.102 16.58 -1.067 0.50570214 -0.033263616 -0.48669818 0.70264941
12.08 16.659 -1.0700001 0.50501931 -0.036625061 -0.48597196 0.70182234
12.112 16.815001 -1.079 0.50488549 -0.037236147 -0.49461216 0.7077691
12.089 16.895 -1.082 0.50395221 -0.041625347 -0.49535185 0.70786577
19.264999 13.822 -1.429 -0.021361921 0.45134801 -0.80063158 0.91933799
19.101999 13.796 -1.419 0.084075235 0.42565763 -0.8268764 0.93379742
18.987 13.805 -1.413 0.068007007 0.43627 -0.81718779 0.92884463
18.813 13.769 -1.402 0.052696817 0.43417105 -0.82093245 0.9301675
18.707001 13.782 -1.397 0.032667521 0.46075258 -0.78840578 0.91375256
18.646 13.828 -1.395 0.027476639 0.47342253 -0.77035654 0.90461761
18.566 13.859 -1.392 0.03785399 0.47895622 -0.76090539 0.89989388
18.624001 13.994 -1.401 0.020369858 0.49025035 -0.74410373 0.89131963
18.445999 13.905 -1.387 0.052141909 0.50137961 -0.71857953 0.87775671
18.735001 14.215 -1.416 0.020998141 0.50616002 -0.71707183 0.87796974
18.372999 14.032 -1.388 0.053975604 0.51314598 -0.69344139 0.86434549
18.23 14.014 -1.38 0.062140368 0.51690584 -0.68126452 0.85742313
18.218 14.096 -1.383 0.056947939 0.51997179 -0.67537701 0.85425282
18.17 14.15 -1.382 0.061281271 0.52249712 -0.66801691 0.85029715
18.035999 14.137 -1.375 0.081134111 0.52223802 -0.66094446 0.84626406
18.223 14.329 -1.393 0.04696887 0.52237099 -0.67394602 0.85397935
18.07 14.301 -1.383 0.078250423 0.52500695 -0.65680104 0.84447795
18.164 14.469 -1.396 0.057301737 0.52694553 -0.66062379 0.84698224
17.886 14.34 -1.375 0.083139673 0.52507299 -0.65340787 0.84235132
17.646 14.24 -1.358 0.080366373 0.52327532 -0.65592188 0.84291714
17.606001 14.299 -1.358 0.082892686 0.52218139 -0.65860862 0.84457678
17.671 14.397 -1.3660001 0.086048603 0.52356982 -0.65532517 0.84319681
17.721001 14.531 -1.375 0.097775079 0.52249885 -0.65563715 0.84405279
17.323999 14.297 -1.3430001 0.075469621 0.5078485 -0.69518584 0.86422747
17.459 14.5 -1.359 0.089814976 0.51932234 -0.6653474 0.84879303
17.127001 14.316 -1.334 0.076246351 0.49470997 -0.72188556 0.87844759
17.139999 14.419 -1.339 0.080637291 0.50183904 -0.7071467 0.87086236
16.992001 14.386 -1.33 0.093211807 0.49144316 -0.72322202 0.87934917
16.992001 14.478 -1.334 0.10038716 0.48729151 -0.72958875 0.88308001
16.898001 14.444 -1.327 0.095047995 0.48313034 -0.7381053 0.88727021
16.694 14.361 -1.313 0.093387917 0.47229356 -0.75539535 0.89577043
16.575001 14.349 -1.306 0.092812963 0.47394457 -0.75223732 0.89392316
16.434999 14.319 -1.298 0.092949905 0.48164612 -0.73782378 0.886006
16.405001 14.383 -1.299 0.088294156 0.4771139 -0.74744666 0.89112854
16.525999 14.581 -1.314 0.096909329 0.47844154 -0.74511993 0.89078701
16.402 14.564 -1.307 0.093546472 0.47855198 -0.74537754 0.89070231
16.072001 14.317 -1.279 0.083265677 0.48848945 -0.72601295 0.87900507
16.061001 14.398 -1.2819999 0.08199349 0.48911279 -0.72601986 0.87923777
16.155001 14.666 -1.299 0.073518924 0.48421383 -0.74051988 0.88782758
15.656 14.304 -1.257 0.042215668 0.49585465 -0.71882474 0.87427855
15.85 14.665 -1.284 0.045540862 0.49553069 -0.72369283 0.87826872
15.531 14.46 -1.258 0.037953511 0.50280994 -0.70653337 0.86801368
15.409 14.392 -1.249 0.015687678 0.4977262 -0.71695137 0.87292427
15.787 14.931 -1.293 0.010469723 0.54758877 -0.42781174 0.69497192
15.312 14.574 -1.252 0.014542938 0.51543325 -0.6784277 0.85214263
15.388 14.832 -1.268 0.02409005 0.53978604 -0.60311455 0.80975085
14.785 14.342 -1.215 0.023677692 0.51492643 -0.67370409 0.84828478
14.748 14.351 -1.214 0.024202703 0.5191747 -0.66199952 0.8416481
14.72 14.414 -1.215 0.023392577 0.52248394 -0.65309513 0.83670181
14.783 14.566 -1.226 0.018388486 0.52508235 -0.64835751 0.83451611
14.436 14.315 -1.197 0.057132162 0.52329564 -0.64200294 0.83022296
14.372 14.341 -1.1950001 0.05736107 0.52646941 -0.63103199 0.82380927
14.335 14.394 -1.196 0.049105354 0.52828413 -0.62740219 0.82166237
14.205 14.354 -1.187 0.048603356 0.53000271 -0.619124 0.81644332
14.183 14.377 -1.187 0.048122801 0.53068417 -0.61699736 0.81524676
14.419 14.707 -1.215 0.061761439 0.53719878 -0.59319437 0.80266839
14.453 14.835 -1.223 0.059573174 0.54301733 -0.56467795 0.7856704
14.158 14.624 -1.198 0.04892128 0.53570074 -0.60071719 0.80636823
13.872 14.42 -1.175 0.017847618 0.52969658 -0.62331188 0.81817764
