# .PCD v0.7 - Point Cloud Data file format
VERSION 0.7
FIELDS x y z normal_x normal_y normal_z curvature
SIZE 4 4 4 4 4 4 4
TYPE F F F F F F F
COUNT 1 1 1 1 1 1 1
WIDTH 234
HEIGHT 1
VIEWPOINT 0 0 0 1 0 0 0
POINTS 234
DATA ascii
21.66 16.131001 0.47999999 -0.08666344 0.53924727 -0.33644986 0.64148009
21.496 16.114 0.479 0.23996022 0.45988241 -0.25725013 0.5790081
23.641001 15.78 0.296 0.44195038 0.33044755 -0.38660753 0.67378122
23.533001 15.815 0.296 0.39888024 0.38238615 -0.36620626 0.66289639
23.405001 15.836 0.296 0.35952732 0.41471663 -0.34096327 0.64614683
23.351999 15.907 0.296 0.28443816 0.47878504 -0.34842116 0.65691513
23.280001 15.966 0.296 0.15559939 0.52910358 -0.32305026 0.63915825
23.222 15.98 0.296 0.16151616 0.53194082 -0.33553979 0.64933461
23.096001 16 0.29499999 0.14690337 0.54129404 -0.35158491 0.6619606
22.974001 16.021999 0.29499999 0.11915575 0.54326177 -0.33713299 0.65037692
22.858 16.049 0.29499999 0.10576517 0.54845095 -0.34538835 0.65671748
22.729 16.065001 0.29499999 0.10615389 0.54907477 -0.34729734 0.6583063
22.615999 16.091999 0.294 0.087602958 0.55274892 -0.34998161 0.66007024
22.499001 16.115999 0.294 0.073035225 0.55512393 -0.35194477 0.66133338
22.409 16.104 0.294 0.076624565 0.55490762 -0.35313672 0.66219282
22.249001 16.096001 0.29300001 0.078613721 0.55149615 -0.34348977 0.6544565
22.16 16.138 0.29300001 0.0754641 0.55545419 -0.35526428 0.66365421
22.048 16.162001 0.29300001 0.048412293 0.55676073 -0.35210943 0.66053563
21.931 16.183001 0.29300001 0.012143922 0.55733812 -0.352305 0.65946347
21.816999 16.205 0.292 -0.026784895 0.55769289 -0.36198115 0.66540903
21.700001 16.225 0.292 0.017793443 0.5559305 -0.34717709 0.65567315
21.584999 16.245001 0.292 0.23745765 0.48363289 -0.29571068 0.61459881
23.688 15.898 0.162 0.41292751 0.37390417 -0.38569331 0.67754912
23.556999 15.917 0.162 0.31680042 0.45517808 -0.34554291 0.65341371
23.437 15.944 0.163 0.25470385 0.49111187 -0.33286363 0.64564937
23.417 16.038 0.162 0.22514108 0.51510751 -0.35623771 0.66552949
23.332001 16.087 0.163 0.16290493 0.54649889 -0.38481817 0.68795645
23.226999 16.122999 0.163 0.13206667 0.55412382 -0.3821401 0.68594885
23.121 16.103001 0.163 0.12532505 0.55170733 -0.3676782 0.67474037
23.002001 16.128 0.163 0.10162506 0.5548678 -0.36252597 0.67054534
22.878 16.148001 0.163 0.088747635 0.55405575 -0.35273346 0.66277808
22.768 16.177999 0.163 0.10441673 0.56096125 -0.38897827 0.69056821
22.649 16.200001 0.163 0.096429184 0.55947471 -0.3764835 0.68121243
22.525 16.219 0.163 0.086889371 0.56073689 -0.37619454 0.68080682
22.396 16.233 0.164 0.072514415 0.56160653 -0.37272936 0.67792875
22.271999 16.195999 0.164 0.067447446 0.55762076 -0.35804188 0.66609615
22.200001 16.250999 0.164 0.070354849 0.55932331 -0.36435267 0.67122668
22.084999 16.273001 0.164 0.061032355 0.56096524 -0.36715329 0.67320764
21.959999 16.288 0.164 0.054307356 0.55908561 -0.35938704 0.66684711
21.851 16.313 0.164 0.0080216369 0.56299382 -0.37053996 0.67403728
21.723 16.323999 0.164 0.10575909 0.54280132 -0.32795197 0.64293915
23.587 15.838 -0.017999999 0.32516566 0.45846358 -0.37556753 0.67599744
23.476 15.871 -0.017000001 0.29221812 0.48089463 -0.37142694 0.67424703
23.389999 15.92 -0.017000001 0.19956316 0.52991676 -0.37381074 0.67850697
23.333 15.989 -0.017000001 0.16200966 0.55475551 -0.43512931 0.72342128
23.271 16.054001 -0.017000001 0.1217073 0.56823719 -0.5102663 0.77335495
23.135 16.068001 -0.016000001 0.11154397 0.56904507 -0.45683002 0.73820591
23.044001 16.058001 -0.015 0.10905682 0.56925595 -0.4565801 0.7378422
22.917999 16.077999 -0.015 0.10230433 0.56888545 -0.44045869 0.72670537
22.804001 16.105 -0.014 0.11284244 0.56796223 -0.44860807 0.73250508
22.424 16.156 -0.012 0.086681053 0.56645805 -0.4073084 0.70305651
22.261 16.145 -0.011 0.077342995 0.55662328 -0.3602469 0.6675247
22.179001 16.193001 -0.011 0.077161424 0.56055963 -0.37433445 0.67845947
21.955 16.082001 -0.0089999996 0.077845417 0.54274434 -0.32053429 0.63511699
21.724001 16.23 -0.0080000004 0.035429671 0.5437355 -0.31292489 0.62835145
21.628 16.264999 -0.0070000002 0.18215837 0.48513541 -0.25149584 0.57601058
23.622999 15.857 -0.193 0.19167353 0.54794413 -0.50465035 0.76919019
23.493999 15.877 -0.192 0.16011071 0.55742037 -0.51823521 0.77776641
23.409 15.873 -0.191 0.14471903 0.56151098 -0.51676005 0.77671045
23.374001 15.957 -0.191 0.13634284 0.56401145 -0.51799726 0.77782995
23.309 16.02 -0.191 0.12683359 0.56647807 -0.51764274 0.77777767
23.191 16.047001 -0.19 0.11397952 0.56933784 -0.5135392 0.77515119
23.065001 16.066999 -0.18799999 0.10948151 0.57023424 -0.50952893 0.77251089
22.938999 16.086 -0.18700001 0.10323036 0.57145166 -0.50353152 0.76860756
22.732 16.047001 -0.184 0.11796279 0.56845748 -0.48846957 0.75872368
22.466 16.125 -0.182 0.094183698 0.5726918 -0.49135721 0.76044613
22.344999 16.145 -0.18099999 0.081852272 0.57422537 -0.49450937 0.76221657
22.204 16.149 -0.17900001 0.087540559 0.57330769 -0.48619989 0.75679284
22.118 16.193001 -0.17900001 0.088658102 0.57322562 -0.48327729 0.75498664
22.033001 16.237 -0.178 0.089237481 0.57339668 -0.4828845 0.75493342
21.684 16.243999 -0.17399999 0.15864828 0.55581599 -0.44116348 0.72713536
23.73 15.826 -0.39300001 0.22413385 0.53490931 -0.50931692 0.77185988
23.615999 15.857 -0.391 0.18446341 0.54998511 -0.51497871 0.77570188
23.483 15.875 -0.389 0.16379124 0.55635679 -0.51593244 0.77623886
23.448 15.959 -0.38999999 0.15197785 0.55974323 -0.52340263 0.78125548
23.360001 16.007 -0.389 0.14057896 0.56278253 -0.52452803 0.78205901
23.320999 16.034 -0.38800001 0.13364311 0.56469113 -0.52273548 0.7810179
23.184999 16.048 -0.38600001 0.12374419 0.56681335 -0.52172154 0.78024572
23.062 16.070999 -0.384 0.11432058 0.56902182 -0.5174942 0.77759588
22.937 16.091 -0.382 0.11474863 0.56914806 -0.50904632 0.772156
22.827 16.121 -0.38100001 0.11322509 0.56970024 -0.50412494 0.76910353
22.700001 16.138 -0.37900001 0.11208355 0.56997019 -0.50063068 0.76685059
22.577 16.158001 -0.377 0.10200725 0.57162535 -0.50234318 0.76779538
22.488001 16.149 -0.375 0.09548758 0.57245666 -0.50359023 0.76839292
22.323999 16.136999 -0.37200001 0.09087123 0.57278949 -0.50141919 0.76665938
22.233 16.177999 -0.37099999 0.091231368 0.57288951 -0.49897027 0.76517767
22.132 16.211 -0.37 0.091330871 0.57295972 -0.49399066 0.76200455
22.007 16.226 -0.368 0.088628784 0.57327586 -0.48913261 0.75878257
21.893 16.249001 -0.36700001 0.089734405 0.57313997 -0.48553884 0.75649834
21.783001 16.273001 -0.36500001 0.14533304 0.5612638 -0.4606337 0.74048775
21.683001 16.252001 -0.36300001 0.19251898 0.54318643 -0.42915773 0.71853417
23.629 15.858 -0.537 0.19154933 0.5474751 -0.51394367 0.77495694
23.514 15.889 -0.53500003 0.1689705 0.55450064 -0.52166134 0.77984136
23.408001 15.924 -0.53399998 0.15658455 0.55820584 -0.52291089 0.78073579
23.372999 16.007999 -0.53399998 0.14562054 0.56112874 -0.52940732 0.78507513
23.292999 16.061001 -0.53299999 0.13669685 0.56374377 -0.52872819 0.78488636
23.167 16.080999 -0.53100002 0.1275419 0.56594408 -0.52523124 0.78257751
23.079 16.073999 -0.52899998 0.12406455 0.56694692 -0.519418 0.77885544
22.943001 16.087 -0.52600002 0.12011494 0.5680145 -0.51075858 0.77326739
22.823999 16.110001 -0.52399999 0.12132533 0.56796485 -0.50589979 0.77021974
22.709999 16.136999 -0.52200001 0.11032829 0.5701586 -0.50499082 0.76959008
22.597 16.164 -0.51999998 0.10389882 0.57124209 -0.50419056 0.76897371
22.472 16.181 -0.51700002 0.090158805 0.57316822 -0.50724548 0.77068043
22.319 16.177 -0.514 0.0911422 0.57282543 -0.5055384 0.7694186
22.212999 16.207001 -0.51200002 0.091415711 0.57282728 -0.50479227 0.76896238
22.143999 16.209999 -0.51099998 0.090793185 0.5728122 -0.50517738 0.76913029
22.028999 16.232 -0.509 0.094566412 0.57241815 -0.50138462 0.76680624
21.91 16.250999 -0.50700003 0.095581509 0.5722205 -0.49842519 0.76485282
21.798 16.274 -0.505 0.12566313 0.56682765 -0.48488733 0.75643939
21.677999 16.291 -0.50199997 0.2017121 0.54121065 -0.43911779 0.72554886
21.563 16.311001 -0.5 0.25419629 0.51493186 -0.42377242 0.71369016
23.648001 15.828 -0.70599997 0.1896975 0.54778898 -0.51627618 0.77627254
23.524 15.852 -0.704 0.16669194 0.5551849 -0.51661795 0.77647316
23.429001 15.842 -0.70099998 0.1619854 0.55648673 -0.51376569 0.77451402
23.391001 15.923 -0.70099998 0.1537046 0.55926502 -0.5153842 0.77590162
23.316999 15.981 -0.69999999 0.1468017 0.56106842 -0.52124488 0.77977222
23.223 16.023001 -0.699 0.14018761 0.56293255 -0.5206396 0.77949417
23.091999 16.040001 -0.69599998 0.13712803 0.56399721 -0.5138948 0.77523208
22.971001 16.063999 -0.69300002 0.13164282 0.56526047 -0.51187128 0.77386135
22.827 16.07 -0.68900001 0.12407202 0.56684715 -0.51023018 0.77268642
22.674 16.016001 -0.68400002 0.11488035 0.56817383 -0.50673997 0.76993787
22.541 16.028 -0.68099999 0.10138759 0.57042837 -0.50892752 0.77115184
22.451 16.070999 -0.67900002 0.09754806 0.57132494 -0.50646824 0.76969987
22.389 16.132999 -0.67900002 0.091491535 0.57244194 -0.50571901 0.76929331
23.624001 15.868 -0.89300001 0.18981764 0.54558456 -0.54510719 0.79425126
23.513 15.901 -0.88999999 0.18360814 0.54706573 -0.55166328 0.79832649
23.417 15.943 -0.88800001 0.1668085 0.55326605 -0.54546416 0.7946443
23.400999 15.986 -0.889 0.16242501 0.55556756 -0.53823894 0.79040396
23.330999 16.046 -0.88800001 0.15418199 0.55889314 -0.53000957 0.78552133
23.200001 16.063999 -0.884 0.1500147 0.56005347 -0.52909023 0.78492087
23.079 16.087 -0.88099998 0.14295185 0.56211871 -0.5274502 0.78397477
22.965 16.115 -0.87800002 0.13685381 0.56379986 -0.52328134 0.78129548
22.830999 16.128 -0.87400001 0.12685926 0.56625175 -0.51924139 0.77868217
22.707001 16.146999 -0.87 0.11503427 0.56867433 -0.51756054 0.77749103
22.583 16.166 -0.86699998 0.10876861 0.57021177 -0.50657338 0.77044708
22.481001 16.146999 -0.86299998 0.09867873 0.57146221 -0.5062955 0.76983219
23.715 15.799 -1.064 0.2622492 0.50430202 -0.59472895 0.82267714
23.597 15.828 -1.0599999 0.23325226 0.52106655 -0.58606106 0.81815922
23.468 15.848 -1.056 0.21154606 0.53192508 -0.57833034 0.8137334
23.43 15.93 -1.057 0.19980469 0.537462 -0.57640404 0.81303686
23.365999 15.994 -1.056 0.18114668 0.54578954 -0.56896341 0.80896211
23.263 16.031 -1.053 0.16680665 0.55215126 -0.55797577 0.80251628
23.177 16.025999 -1.05 0.1634773 0.55338168 -0.55472612 0.80042309
23.049999 16.045 -1.046 0.1515777 0.5577023 -0.54634893 0.79530174
22.924 16.065001 -1.041 0.14174816 0.56151956 -0.53217286 0.78651428
22.798 16.084 -1.0369999 0.13396615 0.56369764 -0.52751923 0.78356779
22.667999 16.099001 -1.033 0.12178048 0.56661332 -0.52334327 0.78087723
22.562 16.129999 -1.03 0.11094107 0.56895775 -0.51860243 0.77779776
23.659 15.799 -1.225 0.33819243 0.43529314 -0.64426136 0.84789556
23.533001 15.822 -1.22 0.29868665 0.46792904 -0.63927811 0.84666866
23.417 15.851 -1.216 0.23800236 0.51110578 -0.61607975 0.83512181
23.399 15.945 -1.2180001 0.21638255 0.52503341 -0.60341108 0.82860512
23.323999 16.002001 -1.217 0.19178498 0.53895187 -0.5860154 0.81894118
23.195 16.021 -1.212 0.1808386 0.54394883 -0.57969147 0.81524545
23.061001 16.035 -1.207 0.16759977 0.54994559 -0.56940031 0.80916411
22.976 16.030001 -1.2029999 0.16320002 0.55164319 -0.56650728 0.80738771
22.837999 16.040001 -1.198 0.14402238 0.55910623 -0.54860139 0.79643309
22.722 16.066 -1.194 0.1350152 0.56210262 -0.5412032 0.79188973
22.594999 16.082001 -1.189 0.12408496 0.56488681 -0.53560466 0.78826803
22.483999 16.110001 -1.1849999 0.10832097 0.56816328 -0.53217357 0.78597182
22.333 16.108 -1.179 0.096790962 0.57053554 -0.52227288 0.77951795
23.705999 15.791 -1.408 0.36552361 0.39158458 -0.67895818 0.86482954
23.575001 15.811 -1.402 0.32847935 0.42939106 -0.67478096 0.86464137
23.474001 15.797 -1.397 0.29860035 0.45517233 -0.66917586 0.86263573
23.410999 15.861 -1.396 0.27302966 0.47412658 -0.66569829 0.86168176
23.363001 15.936 -1.396 0.23187234 0.50801206 -0.63737476 0.84740049
23.268 15.979 -1.393 0.20631462 0.52508521 -0.61938483 0.83780533
23.136 15.995 -1.387 0.19382606 0.53264099 -0.60893768 0.83191353
23.013 16.017 -1.382 0.17725541 0.54236788 -0.59244156 0.82253838
22.896 16.042999 -1.378 0.16500504 0.54875046 -0.57951963 0.81498271
22.777 16.066 -1.373 0.15234505 0.5544095 -0.56794465 0.8081708
22.681 16.052999 -1.368 0.1437466 0.55762738 -0.55960828 0.80297744
22.554001 16.069 -1.363 0.13033089 0.56199563 -0.54907656 0.79643601
22.424 16.083 -1.357 0.10667291 0.56802273 -0.53345716 0.78651476
23.657 15.851 -1.559 0.35158166 0.3859297 -0.71123093 0.88227028
23.542 15.881 -1.554 0.32103375 0.41678423 -0.70877498 0.88268554
23.443001 15.868 -1.548 0.28244209 0.45174104 -0.69930947 0.87913442
23.403 15.948 -1.549 0.2683796 0.46726412 -0.68801129 0.87391239
23.327999 16.004999 -1.5470001 0.23299889 0.49593693 -0.66920263 0.86491281
23.224001 16.040001 -1.543 0.21135788 0.51377612 -0.64938533 0.85459894
23.086 16.052999 -1.5369999 0.19102165 0.5300256 -0.62390143 0.84063631
22.976999 16.084 -1.5319999 0.18400091 0.53377849 -0.61972666 0.83835369
22.858 16.108 -1.527 0.16206144 0.54579377 -0.6001277 0.82722908
22.732 16.125999 -1.521 0.14526856 0.55598783 -0.57133073 0.81033587
22.642 16.115999 -1.516 0.14720418 0.55556953 -0.57010472 0.80953443
22.523001 16.138 -1.511 0.13594976 0.56005442 -0.55777031 0.80202931
22.372 16.136 -1.5039999 0.12026966 0.56583637 -0.53319383 0.78672183
24.813 12.993 -1.725 -0.16384326 -0.10871264 -0.064256847 0.20686226
24.791 13.081 -1.726 -0.18181649 -0.11588275 -0.075647116 0.22849187
24.766001 13.167 -1.728 0.26127169 0.26033813 -0.88814098 0.9616825
24.742001 13.254 -1.729 0.27171132 0.26909661 -0.87721241 0.95694387
24.658001 13.309 -1.726 0.29766369 0.28491074 -0.84962368 0.94426596
24.582001 13.319 -1.722 0.30897278 0.2694664 -0.85004896 0.94374764
24.563 13.408 -1.723 0.33181766 0.26792026 -0.83159995 0.93458158
24.5 13.474 -1.722 0.34800595 0.26605505 -0.81734562 0.92733341
24.391001 13.514 -1.716 0.36294779 0.26426923 -0.80278051 0.91979665
24.354 13.594 -1.717 0.35869914 0.25703621 -0.81219769 0.92433637
24.315001 13.672 -1.717 0.36282811 0.27621856 -0.79523599 0.91670126
24.264999 13.744 -1.717 0.37332454 0.27622104 -0.78319693 0.91053098
24.259001 13.791 -1.7180001 0.36327776 0.27862728 -0.79345572 0.91606539
24.257 13.891 -1.721 0.37954852 0.25263253 -0.79247594 0.91427481
24.228001 13.976 -1.722 0.37429285 0.25714323 -0.7960943 0.91650635
24.183001 14.051 -1.722 0.36702782 0.25676712 -0.80479074 0.92104667
24.132999 14.124 -1.722 0.35590869 0.23821902 -0.82722151 0.93151206
24.108999 14.212 -1.723 0.33384529 0.24760127 -0.84335625 0.94021749
24.052999 14.281 -1.722 0.3102155 0.23572315 -0.86869919 0.95207
24.052 14.332 -1.724 0.31051609 0.23592529 -0.86850297 0.95203906
24.018 14.413 -1.725 0.30889589 0.23825763 -0.86883777 0.9523983
23.972 14.489 -1.725 0.30133313 0.24467137 -0.87167811 0.9541952
23.927999 14.565 -1.725 0.29334971 0.24684264 -0.87647772 0.95666009
23.889 14.644 -1.726 0.28411317 0.24037012 -0.88591063 0.96090358
23.853001 14.726 -1.727 -0.20488067 -0.090179339 -0.079836458 0.23765998
23.815001 14.806 -1.727 -0.19104247 -0.07939738 -0.068675548 0.21798509
23.797001 14.846 -1.728 -0.20086546 -0.084872462 -0.075823277 0.23086672
23.673 14.976 -1.725 -0.20169577 -0.092189699 -0.079182565 0.23547824
23.527 14.987 -1.717 -0.20547317 -0.090931125 -0.080688119 0.2387431
23.438999 15.035 -1.714 0.27222565 0.2422213 -0.89305806 0.96453649
23.372 15.096 -1.712 0.28099355 0.25564513 -0.88126421 0.95965534
23.349001 15.186 -1.714 0.32758772 0.28886926 -0.82656884 0.93486643
23.308001 15.263 -1.715 0.31703004 0.30849788 -0.82284611 0.9342134
23.309 15.316 -1.717 0.31745562 0.32031387 -0.81387126 0.93046516
23.294001 15.411 -1.72 0.30632719 0.34609187 -0.80314863 0.92664105
23.240999 15.481 -1.719 0.28760833 0.36894971 -0.79900539 0.92587906
23.216999 15.571 -1.721 0.28261057 0.39425898 -0.77747011 0.91638893
23.177999 15.65 -1.722 0.24778089 0.42752907 -0.76793694 0.91318321
23.165001 15.748 -1.725 0.23586884 0.44716784 -0.75182575 0.90599948
23.09 15.804 -1.723 0.21775475 0.46706629 -0.7366091 0.89897776
23.059999 15.836 -1.723 0.21567114 0.46695989 -0.7388463 0.9002552
23.027 15.92 -1.724 0.20417616 0.48592561 -0.71634901 0.88936353
22.964001 15.983 -1.723 0.1885085 0.50436682 -0.69329441 0.87782604
22.892 16.041 -1.721 0.18085499 0.51704609 -0.67111635 0.86628073
22.788 16.073999 -1.717 0.17186141 0.52655411 -0.65450561 0.85742241
22.662001 16.093 -1.71 0.15598114 0.54280102 -0.6181556 0.83730483
22.540001 16.113001 -1.704 0.14715335 0.54940534 -0.60082406 0.82733905
