# .PCD v0.7 - Point Cloud Data file format
VERSION 0.7
FIELDS x y z normal_x normal_y normal_z curvature
SIZE 4 4 4 4 4 4 4
TYPE F F F F F F F
COUNT 1 1 1 1 1 1 1
WIDTH 146
HEIGHT 1
VIEWPOINT 0 0 0 1 0 0 0
POINTS 146
DATA ascii
-25.843 59.369999 0.41100001 0.41019204 -0.30401805 -0.4390488 0.67338574
-26.072001 59.386002 0.41100001 0.48861128 -0.18627854 -0.46995983 0.70306677
-26.169001 59.103001 0.41100001 0.50592351 -0.16040277 -0.46407497 0.70502001
-26.229 58.737 0.41 0.51675421 -0.16583814 -0.45119545 0.70577228
-26.295 58.391998 0.40900001 0.52896655 -0.12499951 -0.44079107 0.69980514
-26.357 58.041 0.40799999 0.53272575 -0.092710033 -0.44679838 0.70144182
-26.416 57.688999 0.40700001 0.54170358 -0.091513082 -0.48236611 0.73109126
-26.386999 57.387001 0.40599999 0.54064119 -0.10986437 -0.51059365 0.75171071
-26.452999 57.056999 0.405 0.54200965 -0.11542699 -0.50372249 0.74888867
-26.502001 56.695 0.40400001 0.53768188 -0.10602363 -0.49913734 0.74126983
-26.565001 56.368999 0.403 0.53154194 -0.10058396 -0.49610361 0.73401141
-26.622 56.032001 0.40200001 0.52927905 -0.1033771 -0.49304259 0.73069429
-26.687 55.715 0.40200001 0.52935439 -0.1197947 -0.48802513 0.72988725
-26.75 55.398998 0.40099999 0.53132004 -0.12009095 -0.48702154 0.73069334
-26.712999 55.101002 0.40000001 0.5291248 -0.11883439 -0.48667058 0.72865832
-26.774 54.786999 0.39899999 0.52160907 -0.099573597 -0.45560119 0.69968802
-26.829 54.466 0.398 0.52081239 -0.080572791 -0.44292876 0.68842095
-26.889 54.157001 0.39700001 0.52211136 -0.071132928 -0.45771319 0.69796956
-26.934999 53.824001 0.39700001 0.51940745 -0.094420969 -0.49524456 0.72385538
-26.995001 53.522999 0.396 0.51899701 -0.098583214 -0.4978134 0.72587514
-27.052999 53.222 0.39500001 0.49815446 -0.18348859 -0.49559423 0.72625035
-27.101999 52.904999 0.39399999 0.45251894 -0.28318369 -0.51455975 0.74144328
-27.080999 52.66 0.39300001 0.38662815 -0.37165982 -0.51186448 0.74136198
-27.242001 52.567001 0.39300001 -0.24251032 0.39500549 -0.51277077 0.6912123
-27.479 52.619999 0.39399999 -0.085059404 0.46076861 -0.50565434 0.68936861
-27.705 52.647999 0.39399999 -0.018706299 0.47122407 -0.49759316 0.68556619
-27.933001 52.679001 0.39500001 0.051241469 0.47224414 -0.51987857 0.70421153
-28.159 52.703999 0.39500001 0.097442664 0.46788251 -0.51836622 0.70506215
-28.389 52.735001 0.396 0.10046775 0.46761909 -0.52177006 0.70781732
-28.533001 52.805 0.396 0.1011273 0.46758109 -0.5245406 0.70993078
-28.757 52.821999 0.396 0.099568188 0.46762207 -0.52644694 0.71114737
-28.993 52.860001 0.39700001 0.093167275 0.46880969 -0.52108186 0.70709896
-29.229 52.895 0.39700001 0.091664843 0.46907955 -0.51949507 0.70591301
-29.455999 52.912998 0.398 0.086773857 0.46978125 -0.51763475 0.70439327
-29.691999 52.945 0.398 0.083402671 0.47036433 -0.51673329 0.70371294
-29.926001 52.972 0.39899999 0.08014515 0.47096282 -0.51290411 0.70092785
-26.346001 58.936001 0.106 0.51951557 -0.14286444 -0.50159258 0.73613977
-26.414 58.594002 0.107 0.53277391 -0.11624804 -0.49267113 0.73490578
-26.476 58.243 0.107 0.53275442 -0.10183398 -0.49308789 0.73303008
-26.542 57.903 0.108 0.53525054 -0.1210421 -0.50419897 0.74522543
-26.598 57.549 0.108 0.54072243 -0.12157561 -0.50672364 0.7509529
-26.665001 57.221001 0.109 0.53933483 -0.11643474 -0.50781566 0.74987721
-26.632 56.916 0.109 0.5368247 -0.09703818 -0.50805104 0.74546158
-26.688 56.573002 0.11 0.53184366 -0.098660499 -0.51126206 0.74429864
-26.745001 56.237 0.11 0.53090155 -0.10850616 -0.51240039 0.74577761
-26.806 55.910999 0.11 0.52836758 -0.11738506 -0.50928044 0.74318105
-26.858999 55.574001 0.111 0.53013629 -0.11927766 -0.50114173 0.73919868
-26.921 55.257999 0.111 0.52897578 -0.11385302 -0.49608365 0.73408234
-26.978001 54.936001 0.112 0.52413994 -0.10053756 -0.48423412 0.72063386
-26.947001 54.657001 0.112 0.52137727 -0.083852991 -0.48318553 0.71577495
-27.004999 54.341999 0.112 0.52032715 -0.087181725 -0.49240464 0.72166705
-27.062 54.032001 0.113 0.52051234 -0.086635649 -0.49374074 0.72264707
-27.112 53.709 0.113 0.51849234 -0.1006565 -0.50829268 0.73302627
-27.173 53.411999 0.114 0.50296104 -0.1692256 -0.50872451 0.73512435
-27.226999 53.105999 0.114 0.47066879 -0.24920605 -0.47812569 0.7157073
-27.278 52.796001 0.114 -0.30778852 0.34629536 -0.51902723 0.69573236
-27.294001 52.623001 0.115 -0.20224404 0.41811115 -0.51121187 0.69069326
-27.518999 52.653 0.114 -0.084307306 0.45960042 -0.53336066 0.70909369
-27.747999 52.686001 0.114 -0.025156617 0.46900168 -0.53832901 0.71441835
-27.969999 52.707001 0.114 0.052743539 0.47138026 -0.536937 0.7164374
-28.195999 52.730999 0.114 0.095314115 0.46700349 -0.54131401 0.72124743
-28.422001 52.752998 0.114 0.10147009 0.46640679 -0.54014128 0.7208218
-28.653 52.785 0.113 0.10090524 0.46657994 -0.53975326 0.72056383
-28.804001 52.865002 0.113 0.098997809 0.46682969 -0.53912932 0.71999371
-29.035999 52.895 0.113 0.095064357 0.46765354 -0.53589064 0.71757638
-29.26 52.907001 0.113 0.095580138 0.46771777 -0.5340001 0.71627617
-29.493999 52.937 0.113 0.093497463 0.46832404 -0.53151321 0.71454567
-29.733999 52.976002 0.112 0.088999256 0.47050592 -0.52789694 0.71272147
-26.142 59.354 -0.30500001 0.39210725 -0.33887205 -0.49625841 0.71753377
-26.283001 59.168999 -0.30500001 0.42879465 -0.31562027 -0.49500781 0.72698951
-26.247999 58.841 -0.30199999 0.49585181 -0.21950991 -0.52447605 0.75440621
-26.316 58.497002 -0.30000001 0.529966 -0.12619747 -0.52763265 0.75841016
-26.382 58.153999 -0.29800001 0.53594232 -0.1021256 -0.5295276 0.76030475
-26.444 57.806999 -0.29499999 0.53587943 -0.11733425 -0.50192988 0.74355072
-26.5 57.451 -0.29300001 0.53816253 -0.11435203 -0.49575728 0.74058801
-26.563999 57.117001 -0.29100001 0.54208791 -0.11576296 -0.49611127 0.7438997
-26.621 56.772999 -0.28799999 0.53669059 -0.11537543 -0.49625131 0.74000919
-26.591999 56.479 -0.28600001 0.53071898 -0.10397936 -0.50394088 0.73920953
-26.648001 56.140999 -0.28400001 0.52937645 -0.10386692 -0.50478673 0.7388081
-26.708 55.813 -0.28200001 0.52969873 -0.10953012 -0.50391346 0.73926067
-26.766001 55.486 -0.28 0.53001082 -0.11794946 -0.52874452 0.75788802
-26.825001 55.164001 -0.278 0.52775699 -0.11363581 -0.54964638 0.77042305
-26.884001 54.848 -0.27599999 0.52052599 -0.092009395 -0.5584287 0.76893151
-26.941999 54.532001 -0.27399999 0.52166748 -0.080120884 -0.54299736 0.75723344
-26.906 54.243999 -0.271 0.5221442 -0.087669805 -0.50861245 0.73417109
-26.964001 53.933998 -0.27000001 0.52117288 -0.096292511 -0.504776 0.73190999
-27.017 53.616001 -0.26699999 0.51876122 -0.10014361 -0.49975833 0.72725534
-27.075001 53.314999 -0.266 0.50334537 -0.16731602 -0.48202306 0.7167269
-27.125999 53.001999 -0.264 0.45904461 -0.26885772 -0.46810654 0.70861143
-27.187 52.712002 -0.26199999 -0.29565829 0.35547706 -0.5389145 0.71007508
-27.302999 52.530998 -0.26100001 -0.18837377 0.42383149 -0.52930832 0.70376498
-27.539 52.581001 -0.26199999 -0.094745204 0.45800886 -0.51676315 0.69698846
-27.677999 52.644001 -0.26300001 -0.056259133 0.4655259 -0.52717292 0.70554286
-27.905001 52.674 -0.264 0.037551127 0.47290722 -0.52119863 0.70476902
-28.127001 52.693001 -0.26499999 0.08689899 0.46926025 -0.52363163 0.70848197
-28.360001 52.73 -0.266 0.099742442 0.46799237 -0.51902699 0.70594221
-28.583 52.745998 -0.26699999 0.10157576 0.46772256 -0.51889604 0.70592856
-28.816 52.779999 -0.26800001 0.10078865 0.46783721 -0.51810116 0.7053076
-29.044001 52.804001 -0.26899999 0.10094191 0.46786165 -0.51684761 0.70442545
-29.271999 52.824001 -0.27000001 0.094829604 0.46882746 -0.51466948 0.70262116
-29.426001 52.905998 -0.271 0.097842962 0.46866781 -0.51561987 0.70362389
-29.658001 52.931999 -0.27200001 0.093202226 0.47054005 -0.51495808 0.70375878
-29.886 52.948002 -0.273 0.095387816 0.47087947 -0.51109695 0.70146018
-30.125999 52.981998 -0.27500001 0.10115445 0.47009522 -0.50662267 0.69848996
-30.367001 53.018002 -0.27599999 0.094369978 0.47123241 -0.50195581 0.69492829
-30.601 53.040001 -0.27700001 0.083434187 0.47285366 -0.49278861 0.68803519
-25.452999 59.674 -0.704 -0.1410592 0.48914024 -0.52426445 0.73075926
-25.434999 59.373001 -0.69999999 -0.14680226 0.47833028 -0.51238048 0.71615958
-25.614 59.275002 -0.69999999 -0.22958462 0.43488145 -0.46824816 0.67903411
-25.841 59.289001 -0.70099998 -0.28270492 0.39069214 -0.46003321 0.66647804
-26.082001 59.332001 -0.70300001 -0.30246624 0.36532602 -0.46106651 0.66146147
-26.26 59.231998 -0.70300001 -0.30960631 0.35147786 -0.46391243 0.6592477
-26.325001 58.879002 -0.699 0.4468289 -0.30241093 -0.5604223 0.77793419
-26.392 58.535 -0.69499999 0.51563066 -0.16910741 -0.56940466 0.78657103
-26.361 58.222 -0.69 0.53637594 -0.079775982 -0.5397386 0.76510203
-26.415001 57.856998 -0.68599999 0.5399996 -0.084254146 -0.50181288 0.74196666
-26.482 57.525002 -0.68199998 0.53503746 -0.11936456 -0.47592551 0.72596008
-26.538 57.173 -0.67799997 0.54033726 -0.1040234 -0.48273849 0.73199838
-26.607 56.854 -0.67400002 0.53958929 -0.097274482 -0.48565599 0.7324484
-26.658001 56.499001 -0.67000002 0.53410447 -0.10572062 -0.48462859 0.72890967
-26.722 56.176998 -0.66600001 0.52856761 -0.10797936 -0.48184425 0.72333753
-26.778999 55.845001 -0.66299999 0.52488142 -0.13691925 -0.49877557 0.73690194
-26.746 55.553001 -0.65899998 0.52145845 -0.15348747 -0.53116494 0.76000893
-26.808001 55.237 -0.65499997 0.52040309 -0.15366179 -0.55177081 0.77387494
-26.864 54.912998 -0.65100002 0.5150975 -0.1187509 -0.56919861 0.77679747
-26.917999 54.588001 -0.648 0.5207088 -0.072162017 -0.56044048 0.76840001
-26.973 54.269001 -0.64399999 0.52375448 -0.052782848 -0.54528934 0.75792164
-27.028 53.952999 -0.63999999 0.5188365 -0.096876547 -0.48390108 0.71605629
-27.080999 53.638 -0.63700002 0.51903826 -0.096430719 -0.48479179 0.71674448
-27.134001 53.326 -0.63300002 0.50299132 -0.17015393 -0.48330095 0.7180059
-27.103001 53.058998 -0.63 0.47865677 -0.2322026 -0.48371905 0.71903723
-27.16 52.762001 -0.62599999 0.42180035 -0.32928082 -0.48384666 0.72142148
-27.256001 52.542 -0.62400001 -0.21195023 0.41292068 -0.50988722 0.68950081
-27.436001 52.484001 -0.625 -0.13531017 0.44658312 -0.52110684 0.69949818
-27.694 52.575001 -0.62699997 -0.026884574 0.47040871 -0.49744606 0.68517131
-27.919001 52.599998 -0.62900001 0.035873618 0.47321412 -0.49941486 0.68893665
-28.142 52.622002 -0.63099998 0.092355035 0.46919867 -0.4994736 0.69148445
-28.290001 52.699001 -0.63300002 0.10255216 0.46797809 -0.50201136 0.69392782
-28.514999 52.719002 -0.63499999 0.10010364 0.46835163 -0.50151432 0.69346279
-28.740999 52.740002 -0.63599998 0.1013439 0.46822196 -0.50113583 0.69328171
-28.969 52.763 -0.63800001 0.10286568 0.46789238 -0.5013631 0.69344759
-29.205999 52.800999 -0.63999999 0.10042268 0.46826303 -0.50217092 0.69392407
-29.445 52.84 -0.64200002 0.10161556 0.46808976 -0.50063914 0.69287324
-29.672001 52.856998 -0.64399999 0.10305592 0.46844169 -0.49770823 0.69121027
-29.825001 52.933998 -0.64600003 0.1016406 0.47004467 -0.49557492 0.69055581
-30.054001 52.952 -0.648 0.10004353 0.47032639 -0.49674842 0.69135708
