# .PCD v0.7 - Point Cloud Data file format
VERSION 0.7
FIELDS x y z normal_x normal_y normal_z curvature
SIZE 4 4 4 4 4 4 4
TYPE F F F F F F F
COUNT 1 1 1 1 1 1 1
WIDTH 675
HEIGHT 1
VIEWPOINT 0 0 0 1 0 0 0
POINTS 675
DATA ascii
20.952999 17.040001 0.82300001 0.51734304 0.012867987 -0.49107146 0.71341473
20.964001 17.159 0.82499999 0.51320291 -0.011599094 -0.48705518 0.70762599
20.979 17.282 0.82700002 0.50884241 -0.031070553 -0.48450017 0.70329678
20.99 17.400999 0.829 0.5107432 -0.022510879 -0.49059588 0.70855463
20.910999 17.392 0.82800001 0.51058668 -0.022694282 -0.49063486 0.7084747
21.266001 18.145 0.84500003 0.52099299 0.045741316 -0.47609949 0.70724583
21.174 18.181 0.84399998 0.52091604 0.045835543 -0.47608578 0.70718604
21.121 18.252001 0.84399998 0.52138299 0.050185449 -0.48193455 0.7117722
21.169001 18.351999 0.84600002 0.5231095 0.081503876 -0.48351541 0.71698928
21.181999 18.48 0.84899998 0.52292705 0.11351951 -0.49009207 0.72562361
21.193001 18.607 0.85100001 0.51352268 0.19112995 -0.47297105 0.72383547
21.111 18.653 0.85000002 0.48363248 0.28346246 -0.44480681 0.71561474
21.198 18.849001 0.85399997 0.48384631 0.27911144 -0.42538512 0.70211321
21.208 18.976999 0.85600001 0.47475377 0.29481304 -0.40717465 0.69144565
21.155001 19.049999 0.85699999 0.42432377 0.37263668 -0.37637913 0.67865306
21.146 19.101999 0.85699999 0.41273221 0.3853085 -0.36733624 0.67360705
20.865999 18.968 0.85100001 0.35831743 0.4507128 -0.38422781 0.69221705
20.524 19.254999 0.84899998 0.20668274 0.56063145 -0.51036692 0.78581154
20.438999 19.296 0.84799999 0.18350251 0.56867886 -0.51916939 0.79158431
20.358999 19.281 0.847 0.17207462 0.57235759 -0.51512736 0.78902411
20.253 19.301001 0.84500003 0.14596108 0.58016104 -0.5069313 0.78413695
20.146 19.32 0.84399998 0.14582849 0.58031642 -0.48820251 0.7722531
20.042 19.341999 0.84299999 0.1342876 0.58283615 -0.48556954 0.77039528
19.938 19.363001 0.84100002 0.11312357 0.58667284 -0.49171838 0.77380162
19.837999 19.388 0.83999997 0.1007674 0.58844727 -0.49167368 0.77341276
19.726 19.399 0.838 0.098148413 0.58833498 -0.49305323 0.77386862
19.659 19.393999 0.83700001 0.095593721 0.58843988 -0.4926838 0.77339321
19.549 19.407 0.83600003 0.095382787 0.58799005 -0.49341598 0.77349174
19.445999 19.426001 0.83399999 0.094263591 0.58772767 -0.49276552 0.77274013
19.347 19.448999 0.833 0.092908703 0.58761513 -0.49512306 0.77399641
19.236 19.459999 0.83099997 0.090967417 0.58702362 -0.5126909 0.78468066
19.142 19.486 0.82999998 0.092217207 0.58588123 -0.52521878 0.79222196
19.033001 19.497 0.829 0.092627257 0.58500654 -0.52983636 0.79469424
18.966 19.49 0.82800001 0.092643335 0.58417904 -0.53349733 0.79653454
18.865999 19.509001 0.82599998 0.093081705 0.58327729 -0.53833365 0.79917443
18.764 19.525999 0.82499999 0.093454793 0.58227378 -0.5435406 0.80200553
18.660999 19.542 0.824 0.093892634 0.58186334 -0.54387772 0.80198741
18.566 19.563999 0.82300001 0.093972631 0.58147848 -0.54432911 0.80202383
18.462 19.577 0.82099998 0.096638657 0.58112687 -0.54136497 0.8000772
18.362 19.594 0.81999999 0.094484076 0.58154726 -0.53660476 0.79691219
18.263 19.612 0.81900001 0.091732293 0.58204401 -0.53266293 0.79430461
18.195999 19.601 0.81699997 0.092954174 0.58141202 -0.53307992 0.79426354
18.098 19.618999 0.81599998 0.092307217 0.58168036 -0.52883196 0.79154021
17.999001 19.636 0.815 0.092877209 0.5814817 -0.5271315 0.79032576
17.907 19.658001 0.81400001 0.094225191 0.58134806 -0.52521747 0.78911173
17.806999 19.673 0.81300002 0.095109962 0.58119118 -0.52356869 0.78800589
17.708 19.687 0.81099999 0.096115932 0.58097196 -0.5242027 0.78838772
17.614 19.705999 0.81 0.096996903 0.58102578 -0.52385002 0.78830087
17.556999 19.704 0.80900002 0.096583039 0.58130068 -0.52222949 0.78737688
17.372999 19.621 0.80500001 0.09724731 0.58083844 -0.5189898 0.78497183
17.361 19.733 0.80699998 0.097332664 0.58159041 -0.51809835 0.78495026
17.264 19.747 0.80599999 0.097776234 0.58167386 -0.51763749 0.78476316
17.173 19.768 0.80500001 0.099258833 0.581815 -0.51352632 0.78234917
17.073999 19.778999 0.80299997 0.10041298 0.58196884 -0.51040268 0.78056479
16.981001 19.796 0.80199999 0.10155472 0.58217913 -0.50705016 0.77868205
16.92 19.788 0.801 0.10210089 0.58212614 -0.50701207 0.77868909
16.823999 19.801001 0.80000001 0.10338587 0.58219248 -0.50323474 0.77645475
16.733999 19.822001 0.79900002 0.1040991 0.58236915 -0.50149161 0.77555412
16.635 19.83 0.79799998 0.10325618 0.58269942 -0.49866566 0.77386558
16.547001 19.851 0.79699999 0.1042261 0.58286726 -0.495994 0.77240366
16.455 19.868 0.796 0.10080421 0.58363056 -0.49616569 0.77263606
16.370001 19.892 0.79500002 0.097119235 0.58431619 -0.49699059 0.77321225
16.308001 19.879999 0.79400003 0.09564098 0.5844686 -0.49762633 0.773552
16.219 19.899 0.79299998 0.09441296 0.58481902 -0.49698952 0.77325654
16.128 19.914 0.792 0.093150228 0.58515978 -0.495947 0.77269161
16.031 19.922001 0.79100001 0.091892585 0.58546865 -0.49579042 0.77267456
15.942 19.940001 0.79000002 0.091871113 0.5856443 -0.49417329 0.77176863
15.85 19.952 0.78899997 0.092342049 0.58573329 -0.49584988 0.77296674
15.766 19.975 0.78799999 0.094963998 0.58549684 -0.48956233 0.76908779
15.707 19.965 0.787 0.09628062 0.58521551 -0.48952806 0.76901555
15.617 19.98 0.78600001 0.09507674 0.58543962 -0.49152446 0.77030867
15.529 19.996 0.78500003 0.095669687 0.58536106 -0.49060792 0.7697379
15.442 20.013 0.78399998 0.095822372 0.58546066 -0.49204567 0.77074969
15.35 20.023001 0.78299999 0.094881348 0.58558732 -0.49118286 0.77017891
15.262 20.039 0.78200001 0.094659276 0.58561999 -0.49809867 0.77460533
15.175 20.055 0.78100002 0.094603881 0.58567423 -0.49563879 0.77306014
15.093 20.077 0.77999997 0.093734518 0.58581799 -0.49467179 0.77244353
15.037 20.069 0.77899998 0.093550563 0.58567297 -0.49513018 0.77260494
14.949 20.082001 0.778 0.092255466 0.58578658 -0.49500182 0.77245313
14.87 20.106001 0.778 0.09017311 0.58616847 -0.49619922 0.77326477
14.779 20.115999 0.77700001 0.089335725 0.58613819 -0.49734208 0.77387857
14.695 20.132999 0.77600002 0.091136284 0.58587843 -0.49730894 0.77387047
14.603 20.139999 0.77499998 0.092759065 0.58576787 -0.49521628 0.77263665
14.515 20.152 0.77399999 0.096065447 0.58532345 -0.49255428 0.77100056
14.466 20.15 0.773 0.097170882 0.58505285 -0.49505249 0.77253217
14.385 20.171 0.773 0.099101879 0.58475345 -0.48319656 0.76500762
14.298 20.181999 0.77200001 0.097857162 0.5849998 -0.48588333 0.76673555
14.217 20.202 0.77100003 0.096032739 0.58532083 -0.48476505 0.7660417
14.132 20.216 0.76999998 0.093934834 0.5857178 -0.48376605 0.76545322
14.045 20.226999 0.76899999 0.090177149 0.58608961 -0.48133263 0.76375002
13.965 20.247 0.76800001 0.086680643 0.58637929 -0.47701696 0.76085436
13.874 20.250999 0.76700002 0.069784991 0.587951 -0.47000265 0.75594896
13.828 20.250999 0.76700002 0.055890117 0.58899927 -0.46662489 0.75351351
13.745 20.266001 0.76599997 0.03717703 0.59040457 -0.47151837 0.75649798
13.66 20.278 0.76499999 0.02282976 0.59111321 -0.49445918 0.77099019
13.579 20.296 0.764 0.022320297 0.59084678 -0.50981712 0.78071219
13.495 20.306999 0.764 0.036918886 0.58760756 -0.54892093 0.80495954
13.413 20.322001 0.76300001 0.056774117 0.5829497 -0.57375824 0.81990987
13.336 20.344 0.76200002 0.073207833 0.56895077 -0.62885714 0.85119075
13.28 20.327999 0.76099998 0.079131335 0.56039023 -0.65328962 0.86434156
13.096 20.183001 0.75599998 0.053160161 0.57616985 -0.60330474 0.83592719
12.961 20.114 0.75300002 0.050687626 0.57297766 -0.61433071 0.8415907
12.881 20.129 0.75300002 0.076083839 0.57191575 -0.60915256 0.83901322
12.807 20.152 0.75199997 0.11279416 0.56650811 -0.60806561 0.83868814
12.723 20.159 0.75099999 0.16197771 0.54981065 -0.62397003 0.84727043
12.678 20.229 0.75199997 0.30284598 0.43436399 -0.71637839 0.89083433
20.917999 16.818001 0.616 0.50460148 0.20733194 -0.52884793 0.75979561
20.931999 16.938 0.61699998 0.51653337 0.0073716193 -0.48384774 0.70779216
20.952999 17.063999 0.61900002 0.51586109 0.0035948083 -0.48251444 0.70636094
20.959999 17.179001 0.62 0.51125038 -0.020609535 -0.48179197 0.70279813
20.972 17.299 0.62099999 0.50946647 -0.028333068 -0.48519433 0.70411104
21.000999 17.434 0.62300003 0.51072389 -0.022030875 -0.48404288 0.70400411
21.002001 17.546 0.62400001 0.513897 -0.0060758442 -0.48371923 0.70577002
21.347 18.120001 0.634 0.52052164 0.040258493 -0.47514927 0.70592517
21.183001 18.096001 0.63200003 0.5198825 0.035585623 -0.47511107 0.70517707
21.110001 18.149 0.63099998 0.52084804 0.046712838 -0.473452 0.705423
21.122 18.275 0.63300002 0.5223043 0.06491819 -0.47807619 0.71103656
21.146 18.412001 0.634 0.52321315 0.090927601 -0.48457476 0.71891063
21.138 18.521999 0.63499999 0.5201996 0.14767575 -0.48102963 0.72374392
21.190001 18.625999 0.63700002 0.51436263 0.18694532 -0.47577301 0.72517407
21.16 18.718 0.63700002 0.50140929 0.23739684 -0.46001133 0.72067952
21.051001 18.74 0.63599998 0.45841712 0.33606121 -0.44542027 0.72213751
20.844999 18.674 0.63300002 0.41419002 0.40332392 -0.46231994 0.74024546
20.677999 18.642 0.63099998 0.37780482 0.44433326 -0.51011443 0.7748453
21.025 19.075001 0.63999999 0.38352248 0.43285111 -0.40890974 0.70827734
20.466 19.223 0.63499999 0.19660586 0.56429857 -0.47924536 0.76600444
20.362 19.246 0.634 0.17034216 0.57280642 -0.47150967 0.76121283
20.242001 19.254 0.63300002 0.16287249 0.57505524 -0.47374156 0.76265788
20.179001 19.254 0.63200003 0.16465072 0.57414937 -0.46922636 0.75955957
20.076 19.277 0.63099998 0.14429758 0.57952493 -0.46869338 0.75917351
19.971001 19.297001 0.63 0.12796324 0.58294094 -0.47267085 0.76132286
19.870001 19.320999 0.62900001 0.10798177 0.58667624 -0.47961167 0.76542562
19.756001 19.330999 0.62800002 0.10484408 0.58675408 -0.48076227 0.76577085
19.663 19.361 0.62699997 0.095399745 0.58784175 -0.48135298 0.76574129
19.555 19.375999 0.62599999 0.095324352 0.5873695 -0.48211426 0.76584846
19.450001 19.393999 0.62599999 0.093852639 0.58719105 -0.48108044 0.76487911
19.377001 19.382 0.625 0.094539903 0.58675396 -0.48497972 0.76708758
19.268 19.393999 0.62400001 0.089474633 0.58706868 -0.49426991 0.77263063
19.17 19.417999 0.62300003 0.087181747 0.58713531 -0.49830422 0.77500689
19.066999 19.434999 0.62199998 0.08550892 0.58697581 -0.50291342 0.77767229
18.964001 19.452 0.62099999 0.088176981 0.58527118 -0.51959884 0.78759158
18.863001 19.469999 0.62 0.091138929 0.58354318 -0.53196186 0.79486626
18.764999 19.492001 0.61900002 0.091161571 0.58273596 -0.53626329 0.79716367
18.698 19.483999 0.61900002 0.091934316 0.58209437 -0.53952932 0.79898542
18.608 19.511999 0.61799997 0.094173416 0.58120942 -0.54224503 0.80043906
18.496 19.517 0.61699998 0.097139575 0.5810765 -0.53517354 0.79592508
18.388 19.525 0.616 0.098012082 0.58056343 -0.53480136 0.7954073
18.294001 19.548 0.61500001 0.095040023 0.58105338 -0.53223038 0.79367805
18.201 19.572001 0.61400002 0.094105087 0.58088005 -0.53222114 0.79343355
18.097 19.583 0.61299998 0.093904868 0.58089358 -0.52877957 0.79111522
18.032 19.575001 0.61299998 0.094497457 0.58080781 -0.52621144 0.78940862
17.933001 19.59 0.61199999 0.094846509 0.58088607 -0.52159649 0.78643966
17.833 19.605 0.611 0.094565302 0.58095586 -0.51987237 0.78531498
17.738001 19.624001 0.61000001 0.095580183 0.58075368 -0.51953828 0.78506714
17.646 19.645 0.60900003 0.096234947 0.58085191 -0.5188998 0.78479749
17.570999 19.686001 0.60900003 0.097528696 0.58103597 -0.51737201 0.78408444
17.389999 19.608 0.60600001 0.098821871 0.58047736 -0.51683724 0.78347969
17.374001 19.652 0.60699999 0.098706111 0.58078641 -0.51572126 0.78295863
17.297001 19.688 0.60600001 0.099578641 0.58085066 -0.51536405 0.7828815
17.198999 19.702 0.60600001 0.10150555 0.58094102 -0.51055801 0.78004187
17.104 19.718 0.60500002 0.10268416 0.58095455 -0.50811821 0.77861184
17.004 19.728001 0.60399997 0.10449828 0.58103716 -0.50393444 0.77619195
16.91 19.743 0.60299999 0.1048031 0.58125103 -0.5019418 0.7751013
16.82 19.764 0.60299999 0.10517471 0.5815621 -0.50020087 0.77425909
16.761999 19.759001 0.602 0.10487085 0.58159804 -0.50058889 0.77449554
16.67 19.775999 0.60100001 0.10548069 0.58175892 -0.49898091 0.77366114
16.577999 19.792999 0.60000002 0.1039988 0.58214182 -0.4976314 0.77287894
16.488001 19.811001 0.60000002 0.1015719 0.58282632 -0.49836978 0.77354753
16.393 19.823 0.59899998 0.096615255 0.58366388 -0.49980021 0.77446645
16.302 19.84 0.59799999 0.095323496 0.58396667 -0.49989113 0.77459329
16.212 19.857 0.59799999 0.094895191 0.5841974 -0.49930137 0.77433425
16.118 19.868999 0.597 0.095904365 0.58422452 -0.49544746 0.77200007
16.065001 19.868 0.59600002 0.095586315 0.58428341 -0.49269053 0.77023882
15.973 19.881001 0.59600002 0.094914943 0.58448493 -0.48902747 0.76797092
15.88 19.893999 0.59500003 0.095214039 0.58455122 -0.48415545 0.76496553
15.793 19.912001 0.59399998 0.094463542 0.58472657 -0.48415461 0.76500601
15.707 19.931999 0.59399998 0.093847767 0.5849182 -0.48315448 0.76444423
15.611 19.938999 0.59299999 0.093258366 0.58506095 -0.48500931 0.76565498
15.524 19.958 0.59200001 0.094670594 0.58492339 -0.48540455 0.76597351
15.465 19.945999 0.59200001 0.093945622 0.58486837 -0.48539716 0.76583761
15.381 19.966999 0.59100002 0.093672164 0.58507216 -0.48683226 0.76686996
15.295 19.985001 0.59100002 0.093701527 0.58516157 -0.48964655 0.7687313
15.205 19.997 0.58999997 0.093088247 0.58527172 -0.49224618 0.77039909
15.119 20.014 0.58899999 0.09312921 0.58524913 -0.49397546 0.77149296
15.029 20.025999 0.58899999 0.092560336 0.5852263 -0.49398416 0.77141273
14.95 20.051001 0.588 0.092595741 0.58519 -0.49861434 0.77436268
14.86 20.063 0.588 0.091880277 0.58531654 -0.49602631 0.77270919
14.797 20.042999 0.58700001 0.093717866 0.58479154 -0.49223143 0.77010125
14.711 20.058001 0.58600003 0.094232082 0.58470583 -0.48668501 0.76656562
14.629 20.079 0.58600003 0.09785369 0.58404356 -0.47529942 0.75933641
14.546 20.097 0.58499998 0.098588295 0.58384609 -0.47039187 0.75621718
14.46 20.110001 0.58399999 0.098842844 0.58329082 -0.46039662 0.74964201
14.38 20.132999 0.58399999 0.096529521 0.58385509 -0.46186146 0.75068015
14.291 20.142 0.583 0.097608969 0.58344209 -0.45879307 0.74861425
14.241 20.138 0.583 0.09700682 0.58348149 -0.45850104 0.74838769
14.15 20.143999 0.58200002 0.094366319 0.58388233 -0.45956635 0.74901587
14.07 20.163 0.58200002 0.093806013 0.58321929 -0.45023158 0.7427333
13.984 20.176001 0.58099997 0.092571922 0.58356428 -0.45462704 0.74552166
13.906 20.198999 0.58099997 0.073100612 0.58583832 -0.45136333 0.74315482
13.817 20.204 0.57999998 0.050478496 0.58854187 -0.46225914 0.7500754
13.737 20.225 0.57999998 0.026821651 0.59009373 -0.47237831 0.75635397
13.688 20.219999 0.579 0.018491143 0.59031343 -0.47715536 0.75926882
13.602 20.229 0.579 0.0041610012 0.59024346 -0.49984241 0.77346432
13.521 20.247 0.57800001 -0.00050888024 0.59016228 -0.50192934 0.77474177
13.442 20.266001 0.57800001 0.030950826 0.58752191 -0.54637003 0.80290735
13.355 20.273001 0.57700002 0.054548956 0.58190846 -0.57748663 0.82163489
13.272 20.285 0.57599998 0.080449231 0.5743441 -0.60235041 0.8361634
13.171 20.27 0.57499999 0.099717647 0.5676018 -0.61769235 0.84478354
12.95 20.066999 0.57099998 0.054443888 0.5828771 -0.55903518 0.8094629
12.904 20.066 0.57099998 0.058285318 0.58215022 -0.56185532 0.81115806
12.825 20.080999 0.56999999 0.12806194 0.56356382 -0.60364407 0.83569741
12.749 20.101 0.56999999 0.16681555 0.55067611 -0.61297816 0.8407222
12.679 20.131001 0.56999999 0.21511908 0.52903026 -0.6245786 0.84631413
20.879 16.863001 0.47799999 0.51754338 0.14750823 -0.50200856 0.73594999
20.898001 16.987 0.479 0.51607323 0.0052980408 -0.4815543 0.70587122
20.933001 17.07 0.47999999 0.51581687 0.0037406534 -0.48100671 0.70530027
20.952999 17.197001 0.48100001 0.51185101 -0.017413922 -0.47890183 0.70117164
20.952999 17.306999 0.48199999 0.50968623 -0.026700169 -0.47935781 0.70019776
20.905001 17.378 0.48199999 0.509857 -0.025625899 -0.48020172 0.70085984
20.971001 17.545 0.484 0.51353717 -0.0075792894 -0.48042911 0.70327091
21.259001 18.072001 0.48899999 0.51927429 0.031267695 -0.46997246 0.70106888
21.163 18.105 0.48899999 0.51986068 0.039600316 -0.46655887 0.69964314
21.089001 18.157 0.48800001 0.5207147 0.048326295 -0.46814314 0.70188117
21.106001 18.288 0.48899999 0.52213055 0.068505913 -0.46930254 0.70537806
21.110001 18.408001 0.49000001 0.52289146 0.10465181 -0.47763494 0.71589285
21.108 18.523001 0.491 0.52125663 0.13457423 -0.47540599 0.71821278
21.122999 18.596001 0.49200001 0.51612586 0.17462775 -0.46940601 0.71918201
21.041 18.641001 0.491 0.49501717 0.25625426 -0.46180788 0.72386104
20.632 18.393999 0.48699999 0.45675409 0.33912766 -0.49489307 0.75402319
20.823 19.16 0.493 0.26816267 0.52893984 -0.442779 0.74009585
20.423 19.211 0.491 0.19141351 0.56517828 -0.46173751 0.75449795
20.264999 19.183001 0.48899999 0.1678668 0.57231766 -0.45858198 0.7523458
20.224001 19.264 0.48899999 0.17469396 0.57049602 -0.45836586 0.75238484
20.122999 19.289 0.48899999 0.14830106 0.5778935 -0.45837376 0.75237
20.051001 19.280001 0.48800001 0.13527815 0.58093858 -0.46144822 0.75413811
19.937 19.292 0.48800001 0.12380177 0.58304161 -0.46323091 0.75488228
19.836 19.315001 0.48699999 0.10764645 0.58586705 -0.46745792 0.75719535
19.728001 19.330999 0.486 0.10549983 0.58570981 -0.46702048 0.75650138
19.629 19.355 0.486 0.09808813 0.58663034 -0.46882126 0.75733072
19.523001 19.372 0.48500001 0.096987978 0.58632511 -0.46688023 0.75575191
19.431999 19.403 0.48500001 0.094691247 0.58663416 -0.47288939 0.75942773
19.315001 19.407 0.484 0.091154575 0.58678615 -0.47786525 0.76222199
19.242001 19.395 0.48300001 0.086945176 0.58713722 -0.48888832 0.76896125
19.136 19.41 0.48300001 0.084575616 0.58715117 -0.48938823 0.76902562
19.044001 19.438 0.48199999 0.083928108 0.58671653 -0.50387144 0.77792454
18.938 19.452 0.48199999 0.086596504 0.58509976 -0.5203687 0.78779709
18.833 19.466 0.48100001 0.089318827 0.58322179 -0.53268939 0.79491103
18.738001 19.49 0.47999999 0.089947686 0.58269364 -0.53628063 0.79700655
18.631001 19.500999 0.47999999 0.094422407 0.58189303 -0.5336892 0.79519767
18.572001 19.5 0.479 0.097338378 0.58107048 -0.53524923 0.79599589
18.469 19.514 0.479 0.098503321 0.58068627 -0.53430045 0.79522097
18.385 19.548 0.47799999 0.099249005 0.58045959 -0.53323495 0.79443264
18.27 19.548 0.47799999 0.095102094 0.5810107 -0.52845782 0.79112923
18.177999 19.573 0.477 0.095305972 0.58104235 -0.52374297 0.78803563
18.061001 19.57 0.47600001 0.095108926 0.580917 -0.52093965 0.78605878
17.982 19.607 0.47600001 0.095066033 0.58101708 -0.51904416 0.78487271
17.914 19.594 0.47600001 0.095608525 0.58082503 -0.51753342 0.78379816
17.806 19.6 0.47499999 0.095143512 0.58077866 -0.51691419 0.78329837
17.723 19.632 0.47499999 0.097221911 0.58047116 -0.5179463 0.78400719
17.622999 19.643999 0.47400001 0.097534947 0.58062375 -0.51697004 0.78351456
17.528999 19.664 0.47299999 0.097942285 0.58083051 -0.51679265 0.78360158
17.363001 19.6 0.472 0.099554688 0.58033192 -0.51293486 0.78089589
17.327 19.684999 0.472 0.10143551 0.58064258 -0.51022774 0.77959436
17.254999 19.666 0.472 0.10321641 0.58032954 -0.50786775 0.77805245
17.179001 19.702999 0.47099999 0.10322335 0.58074999 -0.50693393 0.77775806
17.082001 19.716 0.47099999 0.10483676 0.58061516 -0.50421321 0.7761029
16.997999 19.743999 0.47099999 0.10526333 0.58098614 -0.50231963 0.77520984
16.902 19.757999 0.47 0.10553265 0.58120251 -0.500211 0.77404428
16.802999 19.768 0.46900001 0.10540728 0.58144581 -0.49846339 0.77308196
16.712999 19.787001 0.46900001 0.10607543 0.58152694 -0.49820817 0.7730698
16.650999 19.775999 0.46799999 0.10495611 0.58171213 -0.49785599 0.77282947
16.558001 19.792 0.46799999 0.10347943 0.58210319 -0.49872711 0.77348614
16.466 19.808001 0.46799999 0.1007554 0.58277708 -0.49914387 0.77390265
16.382 19.834 0.46700001 0.097673401 0.58341742 -0.50023711 0.77469546
16.282 19.839001 0.46700001 0.09802343 0.58349633 -0.49517229 0.77153879
16.195999 19.860001 0.46599999 0.098568775 0.58356696 -0.49323687 0.77042115
16.103001 19.874001 0.46599999 0.096943431 0.58395112 -0.49310941 0.77042443
16.013 19.889999 0.465 0.098185532 0.58388484 -0.48907861 0.76795816
15.952 19.878 0.465 0.098712258 0.58374894 -0.48634043 0.76618141
15.867 19.899 0.46399999 0.096664451 0.58414817 -0.48433825 0.76495534
15.773 19.91 0.46399999 0.094518423 0.58449972 -0.48170644 0.76329201
15.688 19.931 0.46399999 0.093174525 0.58483869 -0.48194426 0.76353651
15.592 19.938 0.463 0.093406864 0.58478034 -0.48230854 0.76375026
15.508 19.958 0.463 0.093616314 0.58492583 -0.48477817 0.76544899
15.424 19.98 0.46200001 0.092855506 0.58511078 -0.48592687 0.76622564
15.373 19.979 0.46200001 0.093125433 0.58509386 -0.48918822 0.76831782
15.282 19.99 0.46200001 0.092199162 0.58525586 -0.48998117 0.76883459
15.192 20.002001 0.461 0.091811925 0.58529663 -0.49176008 0.76995426
15.102 20.014 0.461 0.091880359 0.58519614 -0.49373525 0.77114916
15.014 20.028 0.46000001 0.091772929 0.58512777 -0.49525911 0.77206111
14.932 20.049 0.46000001 0.09241759 0.58509672 -0.49300322 0.7706694
14.85 20.07 0.46000001 0.097006157 0.58436489 -0.48783958 0.76738513
14.784 20.047001 0.45899999 0.098013327 0.58388513 -0.48257536 0.76381111
14.702 20.066999 0.45899999 0.1010634 0.58294982 -0.46704456 0.75377375
14.623 20.091 0.458 0.10172944 0.58216387 -0.45424336 0.74538624
14.536 20.104 0.458 0.09956409 0.5824638 -0.45237863 0.7441932
14.441 20.106001 0.45699999 0.10085523 0.58156312 -0.44563389 0.7395789
14.361 20.127001 0.45699999 0.10046362 0.58093637 -0.43813372 0.73453462
14.269 20.131001 0.45699999 0.099638864 0.58020222 -0.43096563 0.72958475
14.196 20.162001 0.456 0.098935597 0.58062541 -0.4321357 0.73051721
14.146 20.159 0.456 0.095764615 0.58087873 -0.43100333 0.72962654
14.061 20.172001 0.456 0.095726088 0.58070862 -0.43022937 0.72902906
13.975 20.183001 0.45500001 0.094364047 0.58054173 -0.42871228 0.72782385
13.897 20.205 0.45500001 0.07416033 0.58465517 -0.44071341 0.73590064
13.813 20.219 0.45500001 0.046120062 0.58853066 -0.45890886 0.74772507
13.736 20.242001 0.454 0.024477126 0.58972919 -0.46433917 0.75099301
13.648 20.249001 0.454 0.0023122337 0.59013355 -0.47929901 0.76025689
13.592 20.236 0.454 0.0016884506 0.5901264 -0.49533406 0.77045947
13.51 20.25 0.45300001 -0.0091448352 0.58970255 -0.49883911 0.77244622
13.428 20.264999 0.45300001 0.018900614 0.58923304 -0.52764791 0.7911796
13.343 20.274 0.45300001 0.043901995 0.58722353 -0.54332125 0.80122209
13.26 20.287001 0.45199999 0.068206921 0.58055329 -0.57807058 0.82210702
13.175 20.295 0.45199999 0.13164794 0.56174642 -0.61509508 0.84334582
12.95 20.086 0.449 0.066380516 0.58214527 -0.55653054 0.8081001
12.9 20.077999 0.44800001 0.078934602 0.5806489 -0.5572874 0.80867362
12.818 20.087999 0.44800001 0.10935343 0.57468367 -0.56593508 0.81394225
12.739 20.104 0.44800001 0.13812274 0.56780171 -0.57007802 0.81637347
12.673 20.139 0.44800001 0.24116823 0.5204922 -0.61057508 0.83778048
20.862 16.752001 0.29100001 0.48866066 0.25933957 -0.4975417 0.744039
20.871 16.868 0.29100001 0.51927757 0.1334967 -0.49293092 0.72832102
20.888 16.99 0.292 0.51469266 -0.0032637268 -0.48089543 0.70440018
20.931 17.08 0.292 0.51476038 -0.0023884848 -0.4806293 0.70426446
20.941 17.197001 0.292 0.50997967 -0.025482662 -0.47476566 0.69723099
20.954 17.319 0.292 0.5101195 -0.024552777 -0.47627842 0.69833076
20.962999 17.437 0.29300001 0.5108555 -0.020256363 -0.47508901 0.69792068
21.292 18.052999 0.29499999 0.5192939 0.032050546 -0.46782407 0.69968045
21.108 18.068001 0.294 0.51905853 0.033337053 -0.46517825 0.69779932
21.091 18.167999 0.29499999 0.52063471 0.050941758 -0.46194422 0.69788826
21.105 18.296 0.29499999 0.52204591 0.070322841 -0.46557483 0.70302004
21.122 18.427999 0.29499999 0.52254945 0.09841837 -0.46540126 0.70664167
21.136999 18.558001 0.29499999 0.52084625 0.1351811 -0.46614128 0.71192867
21.153 18.690001 0.296 0.5161413 0.17291892 -0.46137193 0.71355927
21.162001 18.816 0.296 0.50169593 0.23548481 -0.45450497 0.71674728
21.204 18.913 0.296 0.49924377 0.2431277 -0.44968176 0.7145412
21.211 19.040001 0.29699999 0.48226067 0.28723779 -0.43666962 0.71116894
21.113001 19.070999 0.296 0.41506693 0.40117666 -0.43349448 0.72190082
21.000999 19.091 0.296 0.3472138 0.47310698 -0.44101921 0.73408824
20.896999 19.115999 0.296 0.30484819 0.50620639 -0.44581833 0.74022382
20.475 19.148001 0.29499999 0.21756998 0.55317968 -0.44442469 0.74219793
20.375 19.174999 0.29499999 0.19213031 0.56373739 -0.45171785 0.74750447
20.271 19.198 0.29499999 0.16992611 0.56996036 -0.44014955 0.73990631
20.157 19.211 0.29499999 0.16329946 0.57214338 -0.44500357 0.74299592
20.052 19.231001 0.294 0.13402174 0.58019745 -0.45267931 0.74800366
19.961 19.264999 0.294 0.11738253 0.5835861 -0.45577121 0.74971914
19.837 19.266001 0.294 0.11457834 0.58338684 -0.45629984 0.74945182
19.777 19.268 0.294 0.11358456 0.58322668 -0.45462132 0.74815464
19.67 19.285 0.294 0.11148302 0.58309388 -0.45319736 0.74686998
19.573 19.311001 0.29300001 0.10250846 0.58431572 -0.45524234 0.74778235
19.459 19.32 0.29300001 0.098743841 0.58435386 -0.45359614 0.74630374
19.360001 19.343 0.29300001 0.091190748 0.58527917 -0.456343 0.74774086
19.246 19.35 0.29300001 0.086164474 0.58607906 -0.46823677 0.75508851
19.16 19.384001 0.29300001 0.083319008 0.58670437 -0.47383791 0.75874001
19.077 19.362 0.292 0.080557302 0.58677602 -0.48274225 0.76409137
18.971001 19.375999 0.292 0.079877369 0.58623928 -0.50162268 0.77568173
18.881001 19.405001 0.292 0.083424114 0.58480918 -0.51517671 0.78381658
18.778 19.422001 0.292 0.089237683 0.58302188 -0.52673841 0.79077888
18.403 19.457001 0.29100001 0.10001151 0.58021063 -0.52705926 0.790214
18.309 19.48 0.29100001 0.097696826 0.58030331 -0.52708095 0.79000694
18.209 19.496 0.29100001 0.095554359 0.58056939 -0.52395433 0.78785759
18.108 19.511 0.29100001 0.096760161 0.58027446 -0.52120841 0.78596383
18.006001 19.524 0.29100001 0.096105322 0.58017677 -0.52001166 0.78501809
17.92 19.554001 0.28999999 0.096295282 0.58024424 -0.51855886 0.78412974
17.816 19.563 0.28999999 0.095460072 0.58039033 -0.51594162 0.78240734
17.754 19.556999 0.28999999 0.096335635 0.58020771 -0.51424861 0.78126383
17.664 19.580999 0.28999999 0.09743388 0.5802635 -0.51360202 0.78101611
17.556999 19.586 0.28999999 0.099023022 0.58013594 -0.51150006 0.77974069
17.455999 19.596001 0.28999999 0.099767521 0.58020031 -0.51059103 0.77928758
17.333 19.582001 0.289 0.10319294 0.57957923 -0.50879294 0.77809453
17.274 19.639 0.289 0.1038705 0.57993245 -0.50708079 0.77732986
17.188 19.666 0.289 0.10575242 0.57991642 -0.50480634 0.77609026
17.091999 19.681 0.289 0.10626043 0.58007008 -0.50239605 0.77470922
17.021 19.660999 0.289 0.10703306 0.57982463 -0.50104958 0.77375925
16.922001 19.672001 0.289 0.10723644 0.58007956 -0.49913299 0.77273911
16.833 19.693001 0.28799999 0.10794613 0.58028555 -0.49757057 0.77198452
16.74 19.709999 0.28799999 0.1060124 0.58079612 -0.49654543 0.77144027
16.656 19.736 0.28799999 0.1047931 0.58126038 -0.49819455 0.77268559
16.558001 19.745001 0.28799999 0.10307906 0.58164322 -0.50009763 0.77397144
16.466999 19.761999 0.28799999 0.10041662 0.58223546 -0.50003594 0.77402687
16.410999 19.759001 0.28799999 0.099288814 0.58244056 -0.5000602 0.77405137
16.32 19.775 0.28799999 0.09883602 0.58267474 -0.49528074 0.77109104
16.226999 19.789 0.287 0.099199414 0.58275473 -0.49289897 0.76967072
16.136 19.804001 0.287 0.099536948 0.58278698 -0.49027005 0.76805788
16.041 19.813999 0.287 0.099928409 0.58282298 -0.48848957 0.76700091
15.952 19.832001 0.287 0.10006724 0.58291012 -0.4858596 0.76541311
15.866 19.851999 0.287 0.098430201 0.58327836 -0.48483634 0.76483232
15.807 19.843 0.287 0.097079694 0.58332878 -0.48252571 0.76323515
15.717 19.858 0.287 0.095143721 0.58372134 -0.47878399 0.76093167
15.633 19.879 0.287 0.093418397 0.58403867 -0.4776423 0.76024359
15.543 19.893 0.28600001 0.091584444 0.58438957 -0.48008713 0.76182842
15.45 19.902 0.28600001 0.091360405 0.58447576 -0.48273349 0.763538
15.364 19.921 0.28600001 0.092022255 0.58454889 -0.48633426 0.76595461
15.274 19.934 0.28600001 0.090839319 0.58477485 -0.48825714 0.76720822
15.187 19.950001 0.28600001 0.090557367 0.58484328 -0.48999023 0.76833117
15.134 19.945 0.28600001 0.090249784 0.58474231 -0.49054357 0.76857114
15.06 19.976999 0.28600001 0.091360003 0.5846889 -0.49281839 0.77011538
14.955 19.968 0.285 0.092393704 0.58423227 -0.4905521 0.76844341
14.87 19.986 0.285 0.097417474 0.5834046 -0.480353 0.76196468
14.786 20.004 0.285 0.10263989 0.5819661 -0.46537295 0.75219113
14.702 20.021 0.285 0.10733598 0.58050042 -0.45419908 0.74484801
14.618 20.038 0.285 0.10518616 0.58020866 -0.44484973 0.73864573
14.557 20.021 0.285 0.10378698 0.58006102 -0.44272399 0.73705292
14.48 20.047001 0.285 0.10394821 0.57918429 -0.43413746 0.73125577
14.398 20.066 0.285 0.10367452 0.57831138 -0.42564666 0.72551185
14.308 20.073999 0.285 0.10039499 0.57878101 -0.42546982 0.72532141
14.228 20.094 0.28400001 0.099466123 0.57897675 -0.42584458 0.72556961
14.141 20.106001 0.28400001 0.098162338 0.57772636 -0.41598442 0.71864223
14.055 20.118 0.28400001 0.097533338 0.57746947 -0.41447705 0.71747816
14.014 20.127001 0.28400001 0.098295629 0.57719964 -0.41421705 0.71721488
13.924 20.131001 0.28400001 0.07678736 0.58295429 -0.4345805 0.73115814
13.84 20.145 0.28400001 0.04403495 0.58828223 -0.46370873 0.75036049
13.755 20.157 0.28400001 0.018502086 0.5895102 -0.47756353 0.75890154
13.674 20.174 0.28400001 0.00079483166 0.58950996 -0.49498048 0.76975864
13.591 20.188999 0.28400001 -0.012127794 0.58899093 -0.49718398 0.77087569
13.506 20.198 0.28299999 -0.015068462 0.58875418 -0.50166929 0.77364761
13.459 20.197001 0.28299999 -0.0080935657 0.58905071 -0.50253165 0.77432829
13.376 20.209999 0.28299999 0.0012046602 0.58951807 -0.50343418 0.77522832
13.298 20.23 0.28299999 0.029314121 0.58921295 -0.51902306 0.78575832
13.213 20.238001 0.28299999 0.068829283 0.5851512 -0.53980964 0.79908317
12.978 20.016001 0.28200001 0.020853734 0.58757687 -0.51398468 0.78093642
12.891 20.02 0.28200001 0.032497965 0.58746445 -0.51198781 0.77993727
12.811 20.033001 0.28200001 0.052582145 0.58656579 -0.51093072 0.77966309
12.77 20.038 0.28200001 0.093010001 0.58163559 -0.52127445 0.78656077
12.684 20.042999 0.28200001 0.11847387 0.57742631 -0.51479048 0.78260237
20.934 16.893999 0.16500001 0.50828671 0.19742377 -0.48245078 0.728073
20.941 17.009001 0.16500001 0.51189739 -0.01756385 -0.47668427 0.6996966
20.941999 17.118999 0.16500001 0.51079297 -0.021932527 -0.474861 0.69777036
20.959 17.243 0.164 0.50976682 -0.026084661 -0.47416925 0.69669151
21.000999 17.333 0.164 0.50984609 -0.025607385 -0.4728725 0.69584996
21.028 17.466999 0.164 0.51183099 -0.015317775 -0.47201538 0.6964224
21.027 17.577999 0.164 0.51384836 -0.0042527616 -0.4699724 0.69637078
21.308001 18.157 0.163 0.52079344 0.045251168 -0.47089946 0.70357639
21.187 18.169001 0.163 0.52065659 0.048013728 -0.46639371 0.70065093
21.108 18.216999 0.163 0.52059937 0.052117396 -0.45931679 0.69621247
21.152 18.313 0.163 0.52223027 0.080193669 -0.46316844 0.70262402
21.171 18.447001 0.163 0.52237856 0.099114135 -0.46158764 0.70410663
21.181999 18.573999 0.163 0.52199715 0.11565056 -0.46208 0.70666397
21.187 18.695999 0.163 0.51664495 0.16686583 -0.45440003 0.70798701
21.209999 18.836 0.163 0.51123631 0.19458956 -0.44545153 0.70544648
21.221001 18.965 0.162 0.49168512 0.26218912 -0.43639144 0.70776755
21.243 19.105 0.162 0.4634819 0.32434046 -0.42430893 0.70714235
21.406 19.313 0.162 0.52060384 0.13336036 -0.44305164 0.69649702
21.179001 19.229 0.162 0.36906523 0.44943726 -0.41249084 0.71298784
20.375999 19.273001 0.163 0.18190187 0.56409472 -0.42035002 0.72662598
20.283001 19.306 0.163 0.14722149 0.57595265 -0.43202668 0.73487592
20.172001 19.320999 0.163 0.14137438 0.57784373 -0.4392063 0.73945397
19.996 19.273001 0.163 0.12689094 0.58082271 -0.44542134 0.74287039
20.006001 19.403999 0.163 0.12700117 0.58139122 -0.44530708 0.74326539
19.903 19.427 0.163 0.10902962 0.58500886 -0.45038888 0.74630618
19.844 19.43 0.163 0.10600014 0.58532202 -0.4515506 0.74681711
19.728001 19.437 0.164 0.10333887 0.58541363 -0.45354456 0.7477237
19.629999 19.462 0.164 0.10363802 0.5846417 -0.44971025 0.74483961
19.525999 19.482 0.164 0.10173322 0.58462954 -0.45068511 0.74515665
17.731001 19.687 0.16500001 0.098176569 0.58063501 -0.51330984 0.78119314
17.667999 19.679001 0.16500001 0.098265864 0.58072358 -0.51142031 0.78003001
17.573999 19.698999 0.16599999 0.099760473 0.58074605 -0.50983942 0.77920109
17.368999 19.716999 0.16599999 0.10376363 0.58044946 -0.50463742 0.77611041
17.282 19.743 0.16599999 0.10574996 0.58031899 -0.50236821 0.77480775
17.195 19.768 0.16599999 0.10756157 0.5802418 -0.50133544 0.7743302
17.099001 19.783001 0.16599999 0.10835884 0.58032882 -0.49883229 0.7728886
17.035 19.771999 0.16599999 0.11081858 0.57990801 -0.49743679 0.77202165
16.945999 19.792999 0.16599999 0.10890225 0.58057374 -0.49683881 0.77186424
16.849001 19.805 0.16599999 0.1083068 0.58087766 -0.4950445 0.77085555
16.757 19.823 0.16599999 0.10650337 0.58139348 -0.49419934 0.77045071
16.665001 19.84 0.16599999 0.10482989 0.58189654 -0.49596119 0.77173209
16.580999 19.865999 0.16599999 0.1032799 0.58239084 -0.49733597 0.77278
16.511999 19.910999 0.16599999 0.10322478 0.5828802 -0.49413913 0.77108896
16.424999 19.933001 0.16599999 0.10090736 0.58334851 -0.49447465 0.7713514
16.362 19.92 0.167 0.10083826 0.58334202 -0.49343917 0.77067405
16.266001 19.931 0.167 0.10012994 0.58354115 -0.49040529 0.76879358
16.174 19.945 0.167 0.10103922 0.58352643 -0.48878053 0.76786613
16.08 19.957001 0.167 0.1026286 0.58328712 -0.48500261 0.76549596
15.983 19.965 0.167 0.10105152 0.58372217 -0.48416242 0.76508576
15.895 19.983999 0.167 0.10068619 0.58391041 -0.48143727 0.76345986
15.795 19.986 0.167 0.09939611 0.58396435 -0.47830737 0.76136184
15.727 19.964001 0.167 0.097672105 0.58399582 -0.47765723 0.76075447
15.646 19.99 0.167 0.094594173 0.58448863 -0.47560212 0.75945532
15.547 19.993 0.167 0.090042278 0.58520168 -0.47715852 0.76042676
15.465 20.016001 0.167 0.08959081 0.58538556 -0.47988343 0.76222759
15.384 20.041 0.167 0.0892988 0.58563054 -0.48242551 0.76398414
15.3 20.062 0.167 0.089406207 0.58578789 -0.48511302 0.76581693
15.209 20.073 0.167 0.089499906 0.58585244 -0.48763174 0.76747507
15.155 20.066999 0.168 0.089499079 0.58574069 -0.48895234 0.76822954
15.068 20.082001 0.168 0.092537418 0.58521128 -0.48733544 0.76715785
14.977 20.093 0.168 0.10111803 0.58349049 -0.47232151 0.75747848
14.803 20.122 0.168 0.11147641 0.57962066 -0.44417396 0.73869991
14.715 20.134001 0.168 0.1112898 0.57857794 -0.43412942 0.73185122
14.632 20.153 0.168 0.11608905 0.57518631 -0.41530395 0.7188834
14.572 20.136999 0.168 0.11148408 0.57545435 -0.41278958 0.71691817
14.499 20.17 0.168 0.11229248 0.57317227 -0.39942116 0.70758271
14.405 20.171 0.168 0.1064401 0.57376444 -0.39742592 0.70603293
14.321 20.188999 0.168 0.10500332 0.57411182 -0.39704543 0.70588607
14.24 20.207001 0.168 0.10480405 0.57080638 -0.3810519 0.69426537
14.155 20.223 0.168 0.10134995 0.56775194 -0.36648643 0.68332011
14.068 20.232 0.168 0.10083634 0.57102549 -0.37972802 0.69313163
14.011 20.218 0.168 0.10189577 0.57347989 -0.39343315 0.70288801
13.932 20.239 0.168 0.075614586 0.58041793 -0.4105781 0.71496642
13.841 20.243 0.168 0.036281109 0.58674204 -0.4351176 0.73137534
13.765 20.268 0.169 0.0082439361 0.58937365 -0.46134669 0.74851185
13.681 20.282 0.169 -0.013763137 0.58889467 -0.46814668 0.75242788
13.602 20.301001 0.169 -0.027392814 0.58834058 -0.47943604 0.75944316
13.517 20.312 0.169 -0.012349462 0.58963692 -0.48747292 0.76514971
13.431 20.320999 0.169 0.0014812443 0.59024954 -0.48171675 0.76187122
13.392 20.332001 0.169 0.016958006 0.58989346 -0.46343753 0.75035745
13.3 20.330999 0.169 0.036894199 0.58995199 -0.47221684 0.75656676
13.212 20.334999 0.169 0.095135517 0.58363545 -0.5247348 0.79058695
12.983 20.118999 0.169 0.066401906 0.58626986 -0.48475862 0.76361799
12.901 20.131001 0.169 0.11902166 0.57839251 -0.49915859 0.77321625
12.831 20.162001 0.169 0.15202245 0.57053638 -0.50393414 0.77625525
12.738 20.155001 0.17 0.21314248 0.54883844 -0.51120043 0.77973026
12.7 20.164 0.17 0.21836479 0.54675609 -0.50845689 0.77791631
20.906 16.882999 -0.0060000001 0.52037048 0.11447095 -0.47068411 0.7109378
20.916 17 -0.0070000002 0.51159799 -0.018813662 -0.47504666 0.69839519
20.937 17.125999 -0.0070000002 0.50895441 -0.02982834 -0.472379 0.69502968
20.954 17.250999 -0.0080000004 0.50880593 -0.029347204 -0.46883988 0.69249952
20.962999 17.368999 -0.0089999996 0.51122624 -0.018404901 -0.47130537 0.69557154
21.118999 17.610001 -0.011 0.51395631 -0.0047929659 -0.47191939 0.69776928
21.343 18.082001 -0.015 0.51888776 0.027309693 -0.47230497 0.70218396
21.177 18.056 -0.013 0.51825517 0.025666028 -0.46547797 0.69707739
21.117001 18.120001 -0.013 0.51904267 0.035551339 -0.4603608 0.69469506
21.096001 18.216999 -0.014 0.52037579 0.049294613 -0.45971841 0.69610482
21.112 18.346001 -0.015 0.52161199 0.07265237 -0.4569355 0.6972428
21.153999 18.441 -0.015 0.52200276 0.09555842 -0.45519692 0.69915843
21.166 18.57 -0.016000001 0.52154005 0.11127821 -0.45272508 0.69953334
21.177999 18.698 -0.017000001 0.51742268 0.15498549 -0.44518489 0.69995451
21.188 18.826 -0.017999999 0.50514436 0.2156996 -0.43433601 0.70024633
21.209999 18.964001 -0.017999999 0.50140005 0.23078376 -0.43420577 0.7022804
21.216999 19.091 -0.018999999 0.4764899 0.29645449 -0.42253324 0.70246863
21.099001 19.105 -0.017999999 0.39360958 0.41859359 -0.39809927 0.69902229
21.093 19.281 -0.018999999 0.28783721 0.51669252 -0.43237931 0.73264813
20.396 19.240999 -0.015 0.17273158 0.56488544 -0.40808308 0.71795791
20.313 19.224001 -0.015 0.15345502 0.57142544 -0.41536295 0.72291207
20.211 19.247 -0.014 0.13056144 0.57899523 -0.43047419 0.73320514
20.101999 19.264999 -0.014 0.12759179 0.57984459 -0.43460283 0.73578465
20.023001 19.309999 -0.013 0.13027535 0.57922733 -0.43621987 0.73672497
19.913 19.447001 -0.013 0.11454236 0.58284253 -0.43870914 0.73843825
19.826 19.483999 -0.013 0.11179303 0.58288133 -0.43691212 0.73698068
19.819 19.6 -0.014 0.11859591 0.58154833 -0.431566 0.73383421
19.726999 19.57 -0.013 0.11425662 0.58192772 -0.43288255 0.73422182
17.868999 19.606001 -0.003 0.097386025 0.58035356 -0.50983089 0.77860248
17.577 19.655001 -0.0020000001 0.10079796 0.58028126 -0.5051012 0.77589548
17.308001 19.663 -0.001 0.10741162 0.57941723 -0.49816337 0.77164006
17.228001 19.695999 -0 0.10850156 0.57954139 -0.49542099 0.77011865
17.124001 19.702 0 0.11039468 0.57933342 -0.49289605 0.76860964
16.941999 19.743 0.001 0.11278107 0.57943195 -0.48978838 0.76704216
16.844 19.753 0.001 0.11178622 0.57975638 -0.48836446 0.76623327
16.785 19.747999 0.0020000001 0.10881479 0.58034909 -0.48915052 0.76675546
16.690001 19.761 0.0020000001 0.10714728 0.58075422 -0.48942322 0.76700133
16.636999 19.823999 0.0020000001 0.10592727 0.58156157 -0.48991749 0.76775879
16.507999 19.923 0.0020000001 0.10447752 0.58260351 -0.48679292 0.76636142
16.417 19.941 0.0020000001 0.10164382 0.58317143 -0.48683617 0.76643968
16.333 19.966 0.003 0.10319757 0.58310115 -0.48300046 0.76416367
16.264999 19.947001 0.003 0.10189128 0.5831393 -0.48226035 0.7635498
16.165001 19.952999 0.0040000002 0.10259313 0.58306217 -0.47932693 0.76173562
16.08 19.975 0.0040000002 0.10284434 0.58298475 -0.47451851 0.75869364
15.97 19.966999 0.0040000002 0.10220727 0.58302879 -0.47342515 0.75795794
15.715 19.903 0.0060000001 0.098113984 0.58264339 -0.46380445 0.75114197
15.64 19.937 0.0060000001 0.095107704 0.58325773 -0.46239433 0.75036234
15.579 19.924 0.0070000002 0.090944923 0.58370388 -0.46224579 0.75010157
15.531 19.990999 0.0060000001 0.089108534 0.58456761 -0.4636851 0.75144094
15.433 19.993999 0.0070000002 0.088175617 0.58480734 -0.46752998 0.75389576
15.366 20.169001 0.0060000001 0.088581204 0.58622551 -0.47020262 0.75670171
15.261 20.160999 0.0070000002 0.087711044 0.58641088 -0.47532064 0.75993466
15.18 20.187 0.0070000002 0.088165954 0.58651733 -0.47831738 0.76194704
15.124 20.177999 0.0070000002 0.09277159 0.58538485 -0.47021639 0.75656158
14.949 20.207001 0.0080000004 0.11635648 0.57700896 -0.42374068 0.72528225
14.645 20.059999 0.0099999998 0.11787908 0.57246947 -0.40618959 0.71176314
14.573 20.093 0.0099999998 0.11691858 0.57000357 -0.39155224 0.7013467
14.482 20.1 0.011 0.1114715 0.56986642 -0.38599551 0.69725621
14.404 20.125999 0.011 0.10812278 0.56707293 -0.3709375 0.68619013
14.342 20.106001 0.011 0.10941143 0.56709313 -0.37283617 0.68743896
14.262 20.127001 0.011 0.10809171 0.56199592 -0.35307252 0.67244583
14.176 20.139 0.012 0.10538019 0.56241268 -0.35271084 0.67217404
14.121 20.195999 0.012 0.10679321 0.55593222 -0.33217072 0.65635568
14.142 20.362 0.011 0.13855352 0.45720842 -0.17187026 0.50771648
14.168 20.535999 0.0089999996 0.14265035 0.41025233 -0.12501228 0.45197806
14.184 20.698 0.0080000004 0.15773106 0.37558013 -0.10163307 0.41984379
14.167 20.743 0.0080000004 0.17354742 0.36374223 -0.098903835 0.41498083
14.256 21.014 0.0060000001 0.34313414 0.25064239 -0.14205283 0.44804201
14.195 21.065001 0.0060000001 0.36340392 0.20378284 -0.14368749 0.44072208
14.213 21.236 0.0040000002 0.51455045 0.14115629 -0.4339602 0.6877563
14.144 21.277 0.0049999999 0.51332271 0.1508224 -0.43070409 0.68684322
14.058 21.292999 0.0049999999 0.51336503 0.15095566 -0.43067598 0.68688649
13.974 21.311001 0.0049999999 0.51339597 0.15100147 -0.43066567 0.68691319
13.003 20.038 0.017999999 0.035726719 0.58737904 -0.50887924 0.77797723
12.931 20.066 0.017999999 0.079524308 0.58414459 -0.47781351 0.75885093
12.847 20.073 0.017999999 0.12198734 0.57716739 -0.48231253 0.76198977
12.768 20.089001 0.017999999 0.15014319 0.56989878 -0.46818951 0.7526812
12.688 20.101999 0.018999999 0.24066859 0.53599846 -0.48425654 0.76139349
20.893 16.863001 -0.171 0.51894516 0.098056987 -0.44101259 0.68804896
20.917999 16.938 -0.17200001 0.51904005 0.098728418 -0.44089827 0.68814325
20.933001 17.059 -0.17299999 0.5073784 -0.036010154 -0.46795964 0.69116986
20.952999 17.186001 -0.17399999 0.50714415 -0.035957597 -0.46551034 0.6893388
20.964001 17.305 -0.175 0.50999808 -0.023577914 -0.46679902 0.69177693
20.979 17.427999 -0.177 0.51181924 -0.014946885 -0.46810669 0.69376236
21.062 17.610001 -0.17900001 0.5134362 -0.0061449036 -0.4679966 0.6947484
21.173 17.816 -0.182 0.51553875 0.0045046136 -0.47246617 0.69930309
21.211 18.018999 -0.185 0.51741827 0.020875372 -0.46047175 0.69295865
21.148001 18.080999 -0.184 0.5179168 0.025099479 -0.46144646 0.69411856
21.103001 18.158001 -0.185 0.51934683 0.034534305 -0.46741679 0.69956571
21.108 18.278 -0.186 0.52038324 0.063658983 -0.44685298 0.68886048
21.124001 18.408001 -0.18700001 0.52117407 0.084291957 -0.446661 0.69154435
21.138 18.538 -0.189 0.52046275 0.11301137 -0.44247037 0.69241107
21.177999 18.632 -0.19 0.51866275 0.12971164 -0.43334734 0.68820494
21.188 18.759001 -0.191 0.51421869 0.15983278 -0.42186767 0.68406117
21.207001 18.895 -0.193 0.50227112 0.23142572 -0.4459883 0.71045035
21.219999 19.027 -0.19400001 0.49174541 0.25920033 -0.42790663 0.70150012
21.343 19.259001 -0.197 0.5173229 0.16207504 -0.44174379 0.69930601
21.127001 19.184 -0.19400001 0.36787352 0.44854808 -0.40716293 0.7087369
21.055 19.24 -0.19400001 0.30772251 0.50145477 -0.42178684 0.72391587
20.334999 19.236 -0.18700001 0.1575675 0.57108164 -0.42065468 0.72657561
20.239 19.267 -0.186 0.13010719 0.57637119 -0.41125053 0.7199018
20.122999 19.275999 -0.185 0.13304055 0.5757131 -0.41378078 0.72135973
20.231001 19.441 -0.18799999 0.12346905 0.57815897 -0.4085817 0.71864557
19.975 19.316999 -0.184 0.13934153 0.573237 -0.41083872 0.71889162
20.021 19.483 -0.186 0.14215341 0.57369 -0.4113231 0.72007954
19.855 19.443001 -0.184 0.13207884 0.57442474 -0.40763 0.71663857
19.858999 19.57 -0.185 0.13523686 0.57383418 -0.40508473 0.71530998
17.976 19.587999 -0.167 0.098096974 0.58046103 -0.50220913 0.77380359
17.268999 19.667999 -0.161 0.11131521 0.57870042 -0.48701116 0.76450318
17.075001 19.695 -0.16 0.11334641 0.57863408 -0.48542935 0.76374507
16.996 19.729 -0.15899999 0.11435546 0.57875896 -0.48327601 0.76262367
16.891001 19.732 -0.15899999 0.11529323 0.5787003 -0.47962421 0.76041174
16.715 19.775999 -0.15700001 0.11236602 0.5797798 -0.48594168 0.76479411
16.643999 19.754999 -0.15700001 0.1070295 0.58069074 -0.48963079 0.76706934
16.563999 19.785999 -0.156 0.1039701 0.58149397 -0.49134386 0.76835138
15.76 19.881001 -0.15000001 0.10091636 0.58100915 -0.45071951 0.74222893
15.677 19.903 -0.15000001 0.097751021 0.58115512 -0.44514519 0.73854643
15.604 19.940001 -0.149 0.094549388 0.58196568 -0.44639075 0.73951894
15.496 19.93 -0.148 0.088135086 0.58299083 -0.44906116 0.74114907
15.629 20.232 -0.153 0.091396794 0.58324999 -0.43256426 0.73187822
14.909 20.202 -0.146 0.1253228 0.56740499 -0.38313696 0.69602311
14.609 20.058001 -0.142 0.11749638 0.56405681 -0.36828807 0.68381399
14.54 20.094999 -0.142 0.11676775 0.55942011 -0.35050219 0.67040086
14.444 20.096001 -0.141 0.11116664 0.55013233 -0.31963849 0.64588881
14.363 20.115999 -0.141 0.11514091 0.54212284 -0.30126417 0.63080484
14.28 20.134001 -0.14 0.11180271 0.5413065 -0.29783154 0.62786639
14.193 20.143999 -0.14 0.10954601 0.54184443 -0.29811919 0.62806904
14.149 20.148001 -0.14 0.1128962 0.54219043 -0.30053681 0.63010985
14.146 20.280001 -0.141 0.12754928 0.45341352 -0.16475824 0.49899691
14.173 20.455999 -0.14300001 0.15460826 0.37474579 -0.10158721 0.41792113
14.191 20.620001 -0.145 0.167459 0.33913329 -0.081519097 0.3869099
14.161 20.716 -0.146 0.19001475 0.32841358 -0.083576828 0.38851792
14.145 20.832001 -0.147 0.21290524 0.2905221 -0.073349714 0.36757573
14.271 21.160999 -0.152 0.5160467 0.12495779 -0.43743339 0.68794376
14.258 21.214001 -0.153 0.51658517 0.13145919 -0.44667846 0.69545913
14.188 21.253 -0.153 0.51457787 0.14111707 -0.43396688 0.68777293
14.1 21.266001 -0.152 0.51462412 0.14130089 -0.43395367 0.687837
14.052 21.339001 -0.153 0.51335913 0.15108804 -0.43065 0.68689489
13.008 20.024 -0.12899999 0.024457196 0.58741868 -0.4767741 0.75694937
12.941 20.058001 -0.12899999 0.073459916 0.58297217 -0.44839919 0.73913103
12.887 20.042999 -0.12800001 0.10236195 0.57821441 -0.44313797 0.73565018
12.81 20.061001 -0.12800001 0.16080073 0.56279635 -0.42758888 0.72486472
12.741 20.093 -0.12800001 0.2213966 0.54226118 -0.44233587 0.73397863
12.674 20.125999 -0.12800001 0.25030568 0.52964801 -0.45506635 0.7417987
20.91 16.67 -0.35600001 0.43969521 0.3384459 -0.40281904 0.68566805
20.933001 16.796 -0.35800001 0.47174934 0.2752876 -0.39529526 0.67423218
20.945 16.914 -0.359 0.50616372 0.15151933 -0.3896752 0.65651089
20.954 17.030001 -0.361 0.51416892 0.018830858 -0.4299604 0.67051488
21 17.122999 -0.36300001 0.51089692 0.00091262162 -0.42519441 0.66468549
21.002001 17.233999 -0.36500001 0.50875139 -0.028859198 -0.46314064 0.68859285
21.018999 17.358999 -0.366 0.50981897 -0.023474939 -0.46263275 0.68883634
21.052999 17.499001 -0.36899999 0.51215976 -0.012342319 -0.46411374 0.6912753
21.236 17.763 -0.375 0.51484513 0.00070047379 -0.47099552 0.69778419
21.235001 17.875999 -0.377 0.51656324 0.0104983 -0.47254676 0.70017731
21.294001 18.040001 -0.38 0.51885182 0.025387958 -0.47850829 0.70627326
21.166 18.103001 -0.37900001 0.51926118 0.030414108 -0.47584292 0.70497072
21.153 18.208 -0.38 0.52074826 0.045139112 -0.4736259 0.70536357
21.167999 18.337 -0.382 0.52231801 0.064321145 -0.47892964 0.71156651
21.177999 18.462 -0.384 0.52239841 0.08687301 -0.46376157 0.70393312
21.194 18.593 -0.38600001 0.52241272 0.1076526 -0.46512899 0.70770693
21.207001 18.723 -0.38800001 0.52253103 0.11052921 -0.46596563 0.70878726
21.219 18.851999 -0.38999999 0.51580983 0.18139468 -0.49282753 0.73609972
21.267 18.955 -0.39199999 0.51483524 0.18776102 -0.49971637 0.74163735
21.285 19.091 -0.39399999 0.50843537 0.20871052 -0.53831369 0.76931673
21.184 19.121 -0.39300001 0.45029536 0.35597825 -0.4903751 0.75495309
