# .PCD v0.7 - Point Cloud Data file format
VERSION 0.7
FIELDS x y z normal_x normal_y normal_z curvature
SIZE 4 4 4 4 4 4 4
TYPE F F F F F F F
COUNT 1 1 1 1 1 1 1
WIDTH 418
HEIGHT 1
VIEWPOINT 0 0 0 1 0 0 0
POINTS 418
DATA ascii
35.147999 14.376 1.493 0.10124885 0.44048268 -0.82321274 0.93912488
34.938999 14.418 1.487 0.097551763 0.44225761 -0.82209235 0.93858618
34.669998 14.435 1.479 0.09131927 0.43686247 -0.82981145 0.94221818
34.490002 14.487 1.474 0.08450906 0.44420063 -0.8250978 0.94087321
34.255001 14.515 1.467 0.078719258 0.45297992 -0.8165589 0.93709981
34.014 14.539 1.46 0.080184959 0.45219857 -0.81697786 0.93721181
33.808998 14.577 1.454 0.097464718 0.51684225 -0.71565253 0.88813502
33.608002 14.553 1.448 0.084741622 0.54418564 -0.65482044 0.85563368
33.372002 14.575 1.441 0.10766102 0.53142262 -0.68093204 0.87044203
33.181 14.616 1.4349999 0.13829525 0.53873956 -0.64457107 0.85137403
32.949001 14.637 1.428 0.23574913 0.44481051 -0.75765663 0.90965796
32.765999 14.679 1.423 0.30252412 0.384691 -0.77335429 0.9151966
32.606998 14.731 1.419 0.36802471 0.31938574 -0.76583827 0.90772116
32.344002 14.734 1.411 0.45088929 0.26441097 -0.67777783 0.85591882
32.305 14.901 1.4119999 0.47852471 0.21711078 -0.65241331 0.83771485
32.325001 15.034 1.415 0.48719704 0.16407788 -0.66540295 0.84085882
32.335999 15.162 1.4170001 0.51678562 0.094637148 -0.58763522 0.78825045
32.353001 15.295 1.419 0.52020085 0.072888985 -0.57025945 0.77531773
32.368 15.426 1.4220001 0.52133441 0.060470998 -0.56249982 0.76931942
32.393002 15.563 1.424 0.52233028 0.029315416 -0.53603005 0.74901038
32.394001 15.69 1.426 0.52092052 0.0053497925 -0.5148924 0.73246229
32.669998 15.887 1.438 0.51958293 -0.004153505 -0.48976725 0.71404177
32.465 15.913 1.432 0.51980633 -0.003324002 -0.49064803 0.71480429
32.546001 16.591999 1.444 0.52451444 0.065374091 -0.52607447 0.74575031
32.578999 16.673 1.447 0.51770139 0.14956532 -0.55122185 0.77086318
32.597 16.812 1.449 0.51616806 0.175861 -0.48915398 0.73254913
32.610001 16.948999 1.452 0.47460023 0.27443552 -0.59666753 0.81029153
32.618 17.084 1.454 0.47673973 0.29646817 -0.49717659 0.74990582
32.655998 17.235001 1.4579999 0.46456712 0.31801534 -0.45817056 0.72586268
32.573002 17.518999 1.46 0.37707499 0.4268457 -0.40381932 0.69817823
32.381001 17.547001 1.454 0.33253309 0.46778095 -0.40354148 0.70160031
32.196999 17.579 1.45 0.2749199 0.51137483 -0.42003757 0.71660084
32.021 17.613001 1.4450001 0.21165635 0.54921812 -0.46828043 0.75214732
31.851999 17.650999 1.441 0.14689939 0.5707894 -0.50522876 0.77629638
31.666 17.677 1.4349999 0.11496662 0.5761528 -0.53010023 0.79131263
31.497 17.712999 1.431 0.11294147 0.57660234 -0.52829307 0.79013896
31.344 17.691999 1.426 0.10176763 0.57886589 -0.5263924 0.78900659
31.177999 17.728001 1.4220001 0.095422462 0.58062178 -0.52070475 0.78572291
30.989 17.749001 1.4170001 0.091811642 0.58152246 -0.5211221 0.78623533
30.822001 17.782 1.4119999 0.092154808 0.58169955 -0.52255529 0.78735691
30.657 17.816 1.408 0.092288584 0.58208728 -0.51985711 0.78587162
30.475 17.837999 1.403 0.095098138 0.58273393 -0.51783574 0.7853511
30.318001 17.874001 1.399 0.09448202 0.58323586 -0.51836312 0.78599697
30.18 17.856001 1.395 0.093377464 0.583718 -0.51875311 0.78648001
30.017 17.886999 1.391 0.095609829 0.58360451 -0.52082342 0.7880308
29.849001 17.915001 1.386 0.095572904 0.58370727 -0.52297127 0.78952348
29.681999 17.941 1.382 0.094127513 0.58422941 -0.52322352 0.78990304
29.518999 17.969999 1.378 0.094797775 0.58445758 -0.52319211 0.79013115
29.355 17.996 1.373 0.094052352 0.58460677 -0.52343428 0.79031283
29.191999 18.021999 1.369 0.089144982 0.58584988 -0.51717436 0.78653431
29.035999 18.052999 1.365 0.090070896 0.58597219 -0.51778561 0.78713286
28.913 18.039 1.3609999 0.09724538 0.58535933 -0.52075619 0.78948665
28.757 18.066999 1.358 0.096832275 0.58590978 -0.52059269 0.78973633
28.618999 18.106001 1.354 0.10692362 0.58421874 -0.52716923 0.79413575
28.327 18.046 1.345 0.11025576 0.58416528 -0.52399814 0.79245156
28.294001 18.15 1.346 0.11018367 0.58449149 -0.52393985 0.79264349
28.136 18.174 1.342 0.10949384 0.58502531 -0.51890302 0.78962255
27.993999 18.205999 1.3380001 0.11558373 0.5844 -0.51269633 0.78596467
27.865999 18.186001 1.334 0.12196873 0.58308125 -0.51269883 0.78595179
27.719999 18.215 1.331 0.13144973 0.58152997 -0.50180584 0.77927226
27.773001 18.375 1.335 0.13129851 0.58184677 -0.50175315 0.77944928
35.019001 14.232 1.247 0.21918821 0.4964579 -0.67323422 0.86473018
34.82 14.279 1.243 0.16894633 0.52333236 -0.65307558 0.8537724
34.617001 14.259 1.237 0.150278 0.5380637 -0.62628943 0.83924639
34.419998 14.305 1.233 0.074448258 0.53179872 -0.68841714 0.87308109
34.191002 14.336 1.227 0.093712427 0.52264106 -0.70364207 0.88150316
33.965 14.367 1.222 0.10001399 0.47547799 -0.78225768 0.92087412
33.756001 14.404 1.217 0.12068048 0.49613681 -0.74391365 0.90228766
33.515999 14.426 1.211 0.14634372 0.52327043 -0.67773062 0.8686468
33.327 14.469 1.207 0.1057579 0.54887873 -0.6310463 0.84301364
33.134998 14.51 1.2029999 0.16627331 0.52593851 -0.65818888 0.85876119
32.919998 14.478 1.197 0.2344715 0.48639926 -0.68704325 0.8738361
32.743 14.523 1.193 0.28743833 0.45269892 -0.6917581 0.87526363
32.52 14.546 1.188 0.36855546 0.38673788 -0.68301392 0.86712593
32.257 14.551 1.181 0.45565099 0.2753675 -0.65088844 0.84089291
32.250999 14.67 1.182 0.46670327 0.24494454 -0.65581769 0.84137183
32.266998 14.8 1.184 0.48329395 0.2115259 -0.64145374 0.83052945
32.285 14.931 1.186 0.49370432 0.20643792 -0.61185157 0.81284863
32.325001 15.011 1.188 0.49732363 0.18311566 -0.62131321 0.81663471
32.341999 15.143 1.1900001 0.5196293 0.12009741 -0.56089652 0.77397859
32.362999 15.276 1.192 0.52084845 0.09985894 -0.5627594 0.77327424
32.381001 15.41 1.194 0.52377599 0.066027924 -0.542597 0.75704193
32.401001 15.544 1.196 0.52150333 0.015447527 -0.52587849 0.74077833
32.415001 15.676 1.198 0.52023816 -0.00037891418 -0.50469691 0.72482193
32.297001 15.745 1.196 0.5186922 -0.0079175383 -0.49094087 0.71423191
32.606998 16.469999 1.212 0.52136332 0.017009996 -0.52118897 0.73739201
32.561001 16.575001 1.2130001 0.52478027 0.051708721 -0.51179934 0.73485148
32.563999 16.705 1.214 0.52455705 0.1185157 -0.49509668 0.73097658
32.610001 16.794001 1.217 0.51977801 0.15844595 -0.50135922 0.73934793
32.620998 16.93 1.219 0.48099077 0.27871105 -0.55108202 0.78276646
32.646 17.073 1.221 0.48225501 0.28211778 -0.52270538 0.76510215
32.662998 17.212 1.223 0.46501827 0.31899303 -0.47366741 0.73645049
32.665001 17.476999 1.227 0.41326299 0.39209616 -0.4323158 0.7151382
32.500999 17.52 1.223 0.37451464 0.43398789 -0.42383921 0.71291399
32.348 17.504 1.219 0.33070746 0.47255778 -0.41912761 0.71298403
32.161999 17.534 1.215 0.28156939 0.51248515 -0.44720909 0.73615098
31.982 17.566999 1.211 0.20942487 0.55064535 -0.48708251 0.76440722
31.788 17.591 1.207 0.12893926 0.57381332 -0.52452004 0.78804082
31.622999 17.629 1.2029999 0.11210024 0.57626277 -0.5328002 0.79279333
31.443001 17.659 1.2 0.11279327 0.57633114 -0.53245521 0.79270959
31.271 17.691999 1.196 0.10349929 0.57832277 -0.53043014 0.79153359
31.09 17.719 1.192 0.09952388 0.57965404 -0.52781415 0.7902478
30.948 17.702 1.188 0.090656213 0.58038378 -0.53665745 0.79565388
30.781 17.735001 1.1849999 0.088499859 0.5809741 -0.53672534 0.79588771
30.613001 17.767 1.181 0.08924289 0.58026695 -0.55166227 0.80560863
30.445999 17.798 1.178 0.093420088 0.58015645 -0.55090714 0.80548584
30.275 17.826 1.174 0.095070422 0.58043247 -0.55073327 0.80575889
30.107 17.855 1.17 0.095226303 0.58163923 -0.54215062 0.80081183
29.937 17.882 1.1670001 0.095011033 0.58246654 -0.53528225 0.79675686
29.811001 17.870001 1.164 0.094938606 0.58291966 -0.53386265 0.7961269
29.639999 17.895 1.16 0.092519432 0.58355939 -0.53276169 0.795573
29.482 17.926001 1.1569999 0.094812118 0.58344847 -0.53428459 0.79678196
29.318001 17.952 1.153 0.094137244 0.5836193 -0.53387815 0.79655457
29.166 17.986 1.15 0.08968579 0.58493179 -0.52916884 0.79385662
29.007 18.014 1.147 0.095611177 0.58463454 -0.53080624 0.79542083
28.844999 18.039 1.143 0.094846249 0.58499664 -0.53368431 0.79751855
28.722 18.025 1.14 0.09477064 0.58567154 -0.5281899 0.79434073
28.579 18.061001 1.138 0.10253631 0.58402991 -0.53567237 0.79909295
28.344999 18.038 1.132 0.10448049 0.58390445 -0.53710729 0.80021548
28.256001 18.107 1.131 0.10777098 0.58367038 -0.53629827 0.79993844
28.113001 18.139999 1.128 0.10377385 0.58462083 -0.5346579 0.79900539
27.961 18.166 1.125 0.10738299 0.58427268 -0.53454328 0.79915094
27.808001 18.191999 1.122 0.11720608 0.58212745 -0.53682011 0.80049074
27.667 18.224001 1.119 0.12115733 0.58175027 -0.53393793 0.79887557
27.768999 18.353001 1.123 0.11102091 0.58412224 -0.53154802 0.79753858
35.299999 13.966 1.073 0.29860708 0.39196232 -0.76436317 0.90942383
35.122002 13.959 1.069 0.48173407 0.27579042 -0.53324348 0.76972508
34.556999 14.113 1.058 0.14375864 0.53980696 -0.62506783 0.83831251
33.994999 14.133 1.0470001 0.024382107 0.51044714 -0.73584586 0.89589059
33.435001 14.209 1.036 0.18847379 0.46372968 -0.7607246 0.91064233
32.937 14.242 1.026 0.21142812 0.47941428 -0.71993625 0.8904202
32.894001 14.346 1.026 0.2312784 0.48548144 -0.69090426 0.87551737
32.354 14.353 1.0140001 0.40932471 0.30328721 -0.71852934 0.88080317
32.487 14.596 1.0190001 0.4285562 0.33326268 -0.64110047 0.8400799
32.265999 14.618 1.015 0.48472765 0.24718252 -0.59073102 0.80313337
32.320999 14.766 1.018 0.49683464 0.21886677 -0.58079904 0.79503137
32.346001 14.9 1.0190001 0.50433356 0.19355631 -0.57931733 0.79210162
32.356998 15.029 1.021 0.51355541 0.16557199 -0.56031561 0.77788615
32.370998 15.159 1.022 0.52248335 0.11870409 -0.53846753 0.75962281
32.414001 15.242 1.024 0.52389157 0.10973839 -0.53326631 0.75556457
32.436001 15.377 1.026 0.52592915 0.081362925 -0.52061892 0.74449003
32.444 15.505 1.027 0.52329558 0.024247658 -0.51494688 0.73457235
32.449001 15.633 1.029 0.51961964 -0.0042823404 -0.50104403 0.72185045
32.367001 15.719 1.028 0.51881534 -0.0078405589 -0.49185592 0.71494973
32.485001 15.903 1.0319999 0.52113295 0.0048024356 -0.48649201 0.71293551
32.675999 16.445 1.041 0.52293015 0.025113869 -0.47046199 0.70386159
32.619999 16.545 1.041 0.52449119 0.044322621 -0.46983904 0.7055524
32.622002 16.674999 1.043 0.5255605 0.10207878 -0.47293228 0.71435207
32.637001 16.812 1.044 0.52005339 0.15691534 -0.47935843 0.72447395
32.658001 16.952999 1.046 0.49043679 0.26435435 -0.50451875 0.75163198
32.662998 17.087 1.048 0.48613459 0.27520007 -0.49789897 0.7483083
32.709 17.176001 1.05 0.48753446 0.27123111 -0.47709849 0.73408389
32.252998 17.326 1.0420001 0.3864271 0.43037033 -0.46556082 0.74248999
32.243999 17.452 1.043 0.33890155 0.47132879 -0.43979588 0.72830313
31.940001 17.548 1.038 0.18800306 0.55810702 -0.46960786 0.75323308
31.907 17.594999 1.038 0.16978641 0.5643627 -0.4808175 0.76060379
31.739 17.632999 1.035 0.11314552 0.57798064 -0.50084972 0.77311963
31.598 17.684 1.033 0.11120546 0.57814711 -0.50009698 0.77247506
31.431 17.721001 1.03 0.1119803 0.57811522 -0.50102586 0.77316475
31.24 17.742001 1.027 0.10130267 0.58014393 -0.50428236 0.77532572
31.066 17.773001 1.023 0.093156174 0.58139789 -0.5163787 0.78316569
30.893999 17.802999 1.02 0.086745821 0.58140284 -0.53566498 0.79529303
30.75 17.785 1.017 0.089624718 0.58100635 -0.53705227 0.79625756
30.587 17.819 1.015 0.095539346 0.58266735 -0.51443487 0.783117
30.417 17.848 1.012 0.096197695 0.58278263 -0.51659548 0.78470403
30.250999 17.878 1.0089999 0.093875542 0.58358961 -0.51711535 0.78536475
30.079 17.903999 1.006 0.093933761 0.58379769 -0.51857555 0.78648835
29.92 17.937 1.003 0.09079086 0.58465564 -0.51334059 0.78331584
29.747 17.961 1 0.098517351 0.58293748 -0.53023005 0.79414463
29.580999 17.987 0.99699998 0.096993618 0.58370847 -0.52665734 0.79214346
29.445999 17.968 0.99400002 0.09685611 0.58411741 -0.52245492 0.78964126
29.290001 18 0.991 0.091967918 0.5850178 -0.52079445 0.7886259
29.136999 18.032 0.98900002 0.09135744 0.58564281 -0.51606053 0.78590214
28.98 18.061001 0.986 0.093620293 0.58587605 -0.51919311 0.78840154
28.808001 18.079 0.98299998 0.093415417 0.58634651 -0.52006942 0.78930402
28.674999 18.121 0.98100001 0.097355619 0.58595353 -0.52165264 0.79053217
28.414 18.080999 0.97500002 0.10608968 0.58465159 -0.52331913 0.79179251
28.386999 18.127001 0.97500002 0.10448106 0.58509254 -0.52443945 0.79264516
28.233999 18.153999 0.97299999 0.10534029 0.58493489 -0.52611804 0.79375416
28.066 18.171 0.97000003 0.10868083 0.58469057 -0.52528811 0.79347473
28.129999 18.337999 0.97299999 0.10997934 0.58495814 -0.52473933 0.79348773
33.007999 14.527 0.75599998 0.27736157 0.49791729 -0.58293486 0.81526935
32.808998 14.563 0.75400001 0.35560656 0.45018971 -0.52382112 0.7768625
32.562 14.576 0.75 0.43095565 0.36771223 -0.52003902 0.76900953
32.411999 14.57 0.74800003 0.50185281 0.22162823 -0.54112202 0.77057666
32.305 14.644 0.74699998 0.51040894 0.17147899 -0.57052302 0.78448635
32.263 14.747 0.74699998 0.51178521 0.18711768 -0.52116627 0.75402349
32.321999 14.897 0.74900001 0.51726496 0.16613421 -0.51356971 0.74760783
32.34 15.029 0.75 0.51982456 0.15270627 -0.50584269 0.74122441
32.345001 15.155 0.75099999 0.52451992 0.11631732 -0.49593541 0.73116535
32.372002 15.291 0.75199997 0.52604771 0.083112292 -0.50734985 0.73555267
32.391998 15.426 0.75300002 0.52473247 0.039317261 -0.49704766 0.72384143
32.426998 15.505 0.75400001 0.52072561 0.0022870079 -0.48820308 0.71379453
32.439999 15.636 0.75599998 0.51637149 -0.021583691 -0.48411188 0.70814526
32.363998 15.725 0.755 0.51876563 -0.0072590858 -0.48147219 0.70780361
32.597 16.540001 0.764 0.52487934 0.046821374 -0.47185999 0.70734888
32.623001 16.683001 0.76499999 0.52542067 0.11277282 -0.48597074 0.72453576
32.502998 16.75 0.764 0.51419878 0.19132854 -0.5004788 0.74262106
32.612 16.936001 0.76700002 0.49591273 0.25286713 -0.49946257 0.74788642
32.491001 17.461 0.76899999 0.39632863 0.41768634 -0.4790493 0.74901706
32.262001 17.468 0.76599997 0.32910246 0.48246986 -0.49706659 0.76691639
31.912001 17.409 0.76099998 0.2274047 0.54260176 -0.50268269 0.77383423
31.938999 17.554001 0.76200002 0.18850419 0.55844957 -0.49021924 0.76662552
31.799999 17.608 0.76099998 0.11327407 0.57784659 -0.48450705 0.76255149
31.631001 17.645 0.759 0.10964989 0.57830393 -0.48384938 0.76195061
31.483 17.627001 0.75700003 0.10960989 0.57828885 -0.48566911 0.76309031
31.312 17.660999 0.755 0.095660493 0.58092332 -0.49526742 0.76935858
31.132999 17.688999 0.75199997 0.086177774 0.58251011 -0.50414103 0.77517927
30.954 17.716999 0.75 0.089059189 0.58267802 -0.49620646 0.77049726
30.791 17.752001 0.74800003 0.089462817 0.58294415 -0.50432599 0.77599752
30.618999 17.781 0.74599999 0.095589474 0.58275342 -0.50795531 0.7789464
30.447001 17.809999 0.74400002 0.096651822 0.58298612 -0.5103972 0.78084552
30.305 17.791 0.74199998 0.092489168 0.58378863 -0.51140314 0.78159875
30.136999 17.82 0.74000001 0.093418203 0.58399266 -0.51142305 0.78187466
29.976 17.851999 0.73799998 0.093084738 0.58409047 -0.51095366 0.78160101
29.809 17.879999 0.736 0.093676344 0.58441776 -0.51030678 0.78149366
29.650999 17.912001 0.73500001 0.089672528 0.58538342 -0.50664204 0.7793594
29.483999 17.938 0.73299998 0.096159741 0.58441526 -0.51432496 0.7844221
29.360001 17.926001 0.73100001 0.098652251 0.58370817 -0.52067459 0.78838408
29.194 17.951 0.72899997 0.093368307 0.58510303 -0.51559997 0.78543395
29.032 17.976999 0.727 0.092502616 0.58602321 -0.51319224 0.78444004
28.877001 18.007 0.72500002 0.095923163 0.58593506 -0.51504415 0.78599721
28.740999 18.048 0.72399998 0.096057147 0.58621669 -0.51432198 0.78575069
28.593 18.080999 0.722 0.10068974 0.58562493 -0.51485622 0.78623909
28.355 18.056 0.71899998 0.10198571 0.58554256 -0.51801294 0.78841525
28.228001 18.099001 0.71799999 0.10310952 0.58557904 -0.51862997 0.7889939
33.452 14.456 0.57499999 0.13934152 0.5428735 -0.62573159 0.84004027
33.296001 14.45 0.574 0.15664501 0.54543704 -0.59885776 0.82502717
33.102001 14.49 0.57200003 0.26388803 0.50109828 -0.60158628 0.82622176
32.882 14.517 0.56999999 0.36255801 0.44451666 -0.50961763 0.76730275
32.685001 14.552 0.56900001 0.37548679 0.42572573 -0.42220995 0.70745599
32.504002 14.594 0.56699997 0.44935054 0.33541057 -0.43515909 0.70977432
32.289001 14.619 0.565 0.5154531 0.17406549 -0.50257844 0.740659
32.238998 14.719 0.565 0.51124078 0.19221774 -0.48702851 0.73178655
32.27 14.795 0.56599998 0.51512766 0.17598215 -0.5006879 0.73960435
32.313 14.937 0.56699997 0.52024549 0.14917281 -0.48631233 0.72760397
32.32 15.064 0.56800002 0.52391011 0.11770186 -0.48073545 0.72072333
32.339001 15.197 0.56800002 0.52547628 0.091919869 -0.47910333 0.71701783
32.362 15.332 0.56900001 0.52533334 0.052694686 -0.48298427 0.71555966
32.386002 15.468 0.56999999 0.5216468 0.012399904 -0.48244905 0.71065199
32.395 15.598 0.57099998 0.51531374 -0.024049826 -0.48357058 0.70708358
32.442001 15.683 0.57099998 0.51868993 -0.0088942647 -0.48159337 0.7078492
32.429001 15.803 0.57200003 0.51953918 -0.0039513186 -0.48119554 0.70815653
32.624001 16.409 0.57599998 0.52043778 0.0054123178 -0.46863559 0.70035994
32.557999 16.504 0.57599998 0.52421314 0.038873527 -0.47316056 0.70724219
32.542999 16.561001 0.57599998 0.52607876 0.070169576 -0.47894695 0.71489358
32.469002 16.652 0.57599998 0.52386528 0.1325049 -0.49324721 0.73163188
32.153999 16.618 0.57300001 0.51500082 0.18777722 -0.49647987 0.73957992
32.612 17.444 0.58099997 0.44082412 0.35974747 -0.50939387 0.7636925
32.423 17.474001 0.579 0.37585905 0.43952587 -0.51952195 0.77740341
32.208 17.488001 0.57800001 0.2936441 0.50545561 -0.53262967 0.79082656
32.060001 17.539 0.57599998 0.24268812 0.5358423 -0.50669938 0.77638179
31.874001 17.566999 0.57499999 0.1634098 0.56622934 -0.49004281 0.76645964
31.701 17.601999 0.574 0.11297174 0.57757258 -0.47795612 0.75815219
31.548 17.646 0.57200003 0.11084478 0.57794797 -0.48037493 0.75965154
31.353001 17.667 0.57099998 0.091257937 0.58145624 -0.49274749 0.76760632
31.225 17.659 0.56999999 0.083304822 0.582699 -0.49960431 0.77206367
31.030001 17.677999 0.56800002 0.091488615 0.58215177 -0.49280953 0.76820052
30.863001 17.711 0.56699997 0.087656945 0.58303791 -0.49176213 0.7677545
30.690001 17.74 0.565 0.08910124 0.58365315 -0.50068957 0.77413183
30.528999 17.775 0.56400001 0.094456322 0.58311975 -0.50671744 0.77827579
30.351999 17.799999 0.56300002 0.095653072 0.58330941 -0.51013988 0.78079575
30.181999 17.827999 0.56099999 0.094838969 0.58374685 -0.50958401 0.78066039
30.056 17.816999 0.56 0.093556345 0.58415151 -0.50968593 0.78087479
29.885 17.843 0.55900002 0.095200509 0.5840168 -0.50775731 0.77971548
29.721001 17.871 0.55800003 0.095683604 0.58424401 -0.50701773 0.77946353
29.562 17.902 0.55599999 0.091356412 0.58520567 -0.50433904 0.77792645
29.395 17.927 0.55500001 0.095984831 0.58419973 -0.5152272 0.78483212
29.247999 17.964001 0.55400002 0.095795162 0.5844661 -0.51707691 0.78622252
29.069 17.98 0.55299997 0.093683995 0.58561021 -0.5153529 0.78568733
28.947001 17.968 0.55199999 0.099272735 0.58505857 -0.51742983 0.78732598
28.804001 18.004 0.55000001 0.096454002 0.58585399 -0.51410902 0.7853893
28.649 18.033001 0.54900002 0.097380653 0.58596283 -0.51264656 0.78462851
28.444 18.028 0.54799998 0.10002603 0.58577549 -0.51440501 0.78597116
33.355 14.531 0.32100001 0.098175302 0.55055159 -0.35940331 0.6647678
33.203999 14.528 0.32100001 0.15581419 0.53624475 -0.35227779 0.6602546
32.992001 14.559 0.31999999 0.22602236 0.46886081 -0.25952733 0.58161068
32.348 14.519 0.31900001 0.48595428 0.24801889 -0.40182775 0.67759168
32.231998 14.588 0.31799999 0.51389414 0.16863608 -0.44479761 0.70026439
32.161999 14.679 0.31799999 0.51204932 0.17422876 -0.44237992 0.69874901
32.257 14.845 0.31900001 0.51640296 0.1559186 -0.44405949 0.69869268
32.303001 14.927 0.31900001 0.51651049 0.154633 -0.44160339 0.69692755
32.308998 15.053 0.31900001 0.52495509 0.095061004 -0.47760567 0.7160458
32.323002 15.183 0.31900001 0.52564049 0.073009402 -0.48283482 0.71746618
32.348999 15.32 0.31999999 0.52503872 0.053242303 -0.47505459 0.7100544
32.362 15.451 0.31999999 0.5200606 0.0020395219 -0.48200867 0.70908356
32.390999 15.589 0.31999999 0.51388252 -0.031095475 -0.48014826 0.70397764
32.605 15.818 0.32100001 0.51945835 -0.0038463548 -0.47377673 0.70307618
32.421001 15.793 0.31999999 0.51946747 -0.0015829653 -0.46971846 0.70034593
32.522999 16.479 0.322 0.52248406 0.020901535 -0.47608536 0.70716602
32.542 16.617001 0.322 0.52631301 0.090892822 -0.48956573 0.72452849
32.551998 16.750999 0.322 0.52183652 0.14905134 -0.49416319 0.73398018
32.604 16.843 0.322 0.51269978 0.19771427 -0.49962226 0.74268055
32.615002 16.978001 0.32300001 0.4958677 0.25386393 -0.49252611 0.74358159
32.616001 17.108999 0.32300001 0.48811272 0.27125284 -0.52135265 0.76396382
32.653 17.391001 0.32300001 0.46236292 0.32047775 -0.53823394 0.77857637
32.549999 17.468 0.32300001 0.41870004 0.38698721 -0.54240924 0.78694135
32.369999 17.503 0.32300001 0.34277859 0.46787041 -0.54148525 0.79347724
32.224998 17.49 0.322 0.29728296 0.50428259 -0.5195173 0.78267252
32.047001 17.524 0.322 0.24098635 0.53686392 -0.49948314 0.77186829
31.797001 17.517 0.32100001 0.15649065 0.56698483 -0.46232736 0.74813616
31.614 17.546 0.32100001 0.10884123 0.5770635 -0.45980313 0.74583352
31.382999 17.547001 0.31999999 0.089363366 0.58156461 -0.4851616 0.76261717
31.315001 17.639 0.31999999 0.079247124 0.58309281 -0.48937848 0.76535523
31.173 17.688 0.31999999 0.091218337 0.58168405 -0.47936127 0.75925249
31.021 17.667 0.31900001 0.087006383 0.58253086 -0.48047417 0.76011032
30.523001 17.51 0.31799999 0.092320681 0.58312398 -0.4963347 0.77130073
30.322001 17.521999 0.317 0.097199216 0.58259469 -0.50726819 0.778579
30.417999 17.705 0.31799999 0.092457995 0.58364308 -0.50393063 0.77661687
30.215 17.714001 0.317 0.095210597 0.5836041 -0.50672317 0.77873433
30.129999 17.792 0.317 0.095931858 0.583619 -0.50564194 0.77813101
29.981001 17.830999 0.317 0.094357759 0.58395547 -0.50414747 0.77722073
29.84 17.811001 0.31600001 0.095838211 0.58394837 -0.50252134 0.77634293
29.677 17.841 0.31600001 0.094351895 0.58457011 -0.5033108 0.77713978
29.481001 17.849001 0.315 0.090049319 0.5851782 -0.49697158 0.77299619
29.32 17.878 0.315 0.094044968 0.5849154 -0.50341034 0.77742678
29.163 17.909 0.315 0.096916631 0.58479857 -0.5143224 0.78479916
29.002001 17.934999 0.31400001 0.095631845 0.58554792 -0.51215929 0.78378499
28.841 17.962 0.31400001 0.092843696 0.58644259 -0.50786096 0.78131789
28.705999 17.940001 0.31400001 0.099582128 0.58524305 -0.51358134 0.78497887
28.57 17.98 0.31299999 0.099001594 0.58562595 -0.51219136 0.78428251
28.318001 17.945999 0.31200001 0.097965829 0.58593422 -0.51011473 0.78302824
28.247999 18.025999 0.31200001 0.10225743 0.58545589 -0.51481664 0.78628957
28.094999 18.052999 0.31200001 0.10543165 0.58514529 -0.51512146 0.78667718
27.934999 18.075001 0.31200001 0.1081899 0.58483797 -0.51450652 0.78642064
27.801001 18.113001 0.31099999 0.11469291 0.58386904 -0.51503122 0.78696549
27.649 18.138 0.31099999 0.12056305 0.5825662 -0.52163923 0.79121828
27.540001 18.128 0.31099999 0.12242515 0.58209032 -0.52154732 0.79109335
27.395 18.156 0.31 0.12427382 0.58244586 -0.51609492 0.78806162
32.319 14.863 0.15099999 0.50671411 0.20271227 -0.4438706 0.70347178
32.344002 15.122 0.15099999 0.52567911 0.086770795 -0.50126213 0.73152673
32.403999 15.212 0.15099999 0.5259434 0.061864085 -0.49516967 0.72500801
32.415001 15.342 0.15099999 0.52305824 0.020723298 -0.48462781 0.71336067
32.424999 15.471 0.15099999 0.51493871 -0.028528221 -0.48678294 0.70917797
32.445999 15.607 0.15099999 0.5128628 -0.036936231 -0.48261872 0.70520449
32.459999 15.739 0.15099999 0.51593357 -0.022483334 -0.4771978 0.70314342
32.473 15.872 0.15000001 0.51874393 -0.0028370023 -0.46193948 0.69461602
32.678001 16.099001 0.15000001 0.51985961 0.0017870218 -0.46631676 0.69836134
32.733002 16.191 0.15000001 0.52033526 0.0063687786 -0.46183214 0.69575733
32.727001 16.316 0.15000001 0.52038419 0.0094464794 -0.45580697 0.69184458
32.708 16.434999 0.15000001 0.52154922 0.016144857 -0.45840329 0.69455588
32.617001 16.517 0.15000001 0.52329862 0.028780524 -0.4731403 0.70606762
32.602001 16.639 0.15000001 0.52623063 0.079570457 -0.47863892 0.715783
32.612 16.773001 0.15000001 0.52094066 0.15578789 -0.49378753 0.73448974
32.627998 16.912001 0.15000001 0.51274085 0.19780898 -0.49025431 0.7364651
32.672001 17 0.149 0.51243156 0.19798152 -0.49056986 0.73650628
32.700001 17.145 0.149 0.50497597 0.22281754 -0.49043277 0.73835808
32.694 17.537001 0.149 0.40999219 0.39646757 -0.54932725 0.79185891
32.547001 17.59 0.149 0.35153332 0.45865178 -0.44385171 0.72865731
32.370998 17.625999 0.149 0.28815371 0.50904351 -0.46406171 0.74666667
32.208 17.603001 0.15000001 0.24972624 0.53232777 -0.48332876 0.76114565
32.032001 17.636999 0.15000001 0.20202008 0.55369729 -0.4861162 0.76400381
31.780001 17.629 0.15000001 0.12071894 0.57484579 -0.45140138 0.74079949
31.601 17.66 0.15000001 0.10301089 0.57787335 -0.45402101 0.74208081
31.371 17.660999 0.15099999 0.083633691 0.58221859 -0.47473642 0.75587553
31.358999 17.784 0.15099999 0.085577689 0.58226037 -0.47992775 0.75939536
31.447001 17.965 0.15000001 0.093238592 0.58094305 -0.46731147 0.75137758
30.518999 17.753 0.152 0.076008789 0.58522648 -0.4743956 0.75717801
30.416 17.820999 0.152 0.088863321 0.5843482 -0.49864742 0.77331024
30.319 17.892 0.152 0.092892736 0.58412725 -0.49905136 0.77387726
30.242001 17.975 0.152 0.097043559 0.58374023 -0.50371796 0.77711129
30.368999 18.18 0.152 0.09690325 0.5838933 -0.4999024 0.77474123
29.458 17.950001 0.153 0.085971281 0.58603168 -0.49340481 0.77089065
29.316999 17.99 0.153 0.091985293 0.585401 -0.50268334 0.77707541
29.160999 18.021 0.153 0.095844246 0.5849427 -0.5174011 0.78679603
29.004 18.049999 0.154 0.096384726 0.58551717 -0.51382804 0.78494561
28.846001 18.077999 0.154 0.094296917 0.58640474 -0.50975835 0.78269792
28.698 18.111 0.154 0.094291881 0.58663863 -0.50800759 0.78173369
28.546 18.077 0.154 0.10015895 0.58565432 -0.51351607 0.78531623
28.391001 18.105 0.154 0.099854216 0.58610964 -0.51078135 0.78383219
28.252001 18.141001 0.154 0.10177194 0.5861336 -0.50643355 0.7812714
28.106001 18.172001 0.155 0.10409017 0.58590496 -0.50832427 0.78263205
27.950001 18.195 0.155 0.10988964 0.5845722 -0.51769948 0.78855127
27.806999 18.226999 0.155 0.11247994 0.58424771 -0.51909351 0.78959179
27.658001 18.254 0.155 0.1184473 0.58324522 -0.52138954 0.79123431
27.535999 18.235001 0.155 0.11760136 0.58424592 -0.49776164 0.77649212
27.393999 18.264999 0.155 0.12225029 0.58342117 -0.47061545 0.7594763
32.327 15.108 -0.075000003 0.52507734 0.049208403 -0.49405816 0.72264868
32.349998 15.243 -0.075999998 0.51733685 -0.014748916 -0.48759899 0.711061
32.382 15.32 -0.075999998 0.51524097 -0.026406169 -0.48534733 0.70833087
32.396999 15.452 -0.077 0.50940353 -0.050702006 -0.48258707 0.70352888
32.417 15.587 -0.078000002 0.51041526 -0.045317635 -0.47250673 0.69702226
32.426998 15.717 -0.078000002 0.51392984 -0.030340888 -0.47185883 0.6983518
32.688 16.098 -0.081 0.51713085 0.0024226829 -0.43409199 0.67517853
32.652 16.208 -0.081 0.51718563 0.0029047355 -0.43335119 0.67474639
32.563 16.612 -0.082000002 0.519485 0.059967168 -0.41192198 0.66568798
32.610001 17.025 -0.083999999 0.50883138 0.18034723 -0.40606219 0.67551535
32.633999 17.497 -0.086000003 0.38263795 0.3632111 -0.70065284 0.8770681
31.816999 17.643 -0.081 0.1058875 0.57281321 -0.41187829 0.71342194
31.532 17.615 -0.079000004 0.10096112 0.57334191 -0.41355297 0.71410096
31.386 17.663 -0.078000002 0.070212081 0.58129013 -0.44099039 0.73300785
31.235001 17.708 -0.077 0.075218737 0.58112168 -0.44158205 0.7337268
31.443001 17.955999 -0.079999998 0.085819617 0.57967734 -0.4399206 0.73274893
30.511 17.743999 -0.071999997 0.076553643 0.58029616 -0.42015421 0.72050929
30.235001 17.839001 -0.071000002 0.094374105 0.58275759 -0.45804811 0.74720877
30.191 17.941 -0.071000002 0.096649513 0.58236754 -0.4535377 0.74443907
29.061001 17.957001 -0.063000001 0.092138238 0.5863229 -0.48996538 0.76962978
28.906 17.987 -0.061999999 0.08900889 0.58701986 -0.48588362 0.76720124
28.746 18.013 -0.061999999 0.092675388 0.58673203 -0.48619127 0.76761001
28.601 18.047001 -0.061000001 0.094749629 0.58673269 -0.48685622 0.76828492
28.325001 17.997999 -0.059 0.095873766 0.58652395 -0.48420152 0.76658541
28.288 18.1 -0.059 0.095478162 0.58703184 -0.48152867 0.76524001
28.164 18.083 -0.057999998 0.097250909 0.58681351 -0.48143747 0.76523846
28.013 18.110001 -0.057 0.099159852 0.58685088 -0.48366624 0.76691568
27.864 18.138 -0.056000002 0.10380428 0.58614928 -0.48170197 0.76575655
27.714001 18.166 -0.055 0.10941568 0.58546215 -0.48295137 0.76679838
27.57 18.195 -0.054000001 0.1156866 0.58443862 -0.48214969 0.76643342
27.431 18.228001 -0.054000001 0.10763536 0.58633226 -0.48707363 0.7698127
27.304001 18.267 -0.052999999 0.10075144 0.58758688 -0.48738912 0.77003723
32.339001 15.184 -0.29499999 0.51735818 -0.015019432 -0.4894214 0.71233308
32.363998 15.32 -0.296 0.51010102 -0.047365054 -0.47813037 0.70075327
32.383999 15.454 -0.29699999 0.50684643 -0.059686072 -0.47507939 0.697249
28.073 18.091 -0.26300001 0.099732727 0.5864231 -0.4796052 0.76410717
27.91 18.110001 -0.26100001 0.10465086 0.58589578 -0.4766317 0.76249814
27.766001 18.141001 -0.259 0.10953327 0.58525574 -0.47962701 0.76456779
27.627001 18.174 -0.25799999 0.1156749 0.5842725 -0.48218167 0.76632512
27.482 18.202 -0.257 0.11303723 0.58503461 -0.48640361 0.76917577
27.348 18.237 -0.255 0.10083583 0.58739454 -0.48742127 0.7699219
