# .PCD v0.7 - Point Cloud Data file format
VERSION 0.7
FIELDS x y z normal_x normal_y normal_z curvature
SIZE 4 4 4 4 4 4 4
TYPE F F F F F F F
COUNT 1 1 1 1 1 1 1
WIDTH 674
HEIGHT 1
VIEWPOINT 0 0 0 1 0 0 0
POINTS 674
DATA ascii
8.7220001 14.254 -0.83099997 -0.022654973 0.5288716 -0.59445083 0.79598379
8.7840004 14.457 -0.84399998 -0.020909328 0.53110403 -0.58641714 0.79145038
8.7969999 14.582 -0.85100001 -0.026956368 0.53269506 -0.57709408 0.78582966
8.6630001 14.462 -0.83999997 -0.018612498 0.53187716 -0.58243257 0.78896606
8.6379995 14.524 -0.84299999 -0.022897387 0.53236067 -0.57916057 0.78699374
8.4709997 14.344 -0.82800001 -0.015754024 0.53093463 -0.58646142 0.79125011
8.3800001 14.24 -0.81900001 -0.0074690729 0.53092724 -0.58673954 0.7913298
8.4849997 14.524 -0.838 -0.018306818 0.5330435 -0.57610798 0.78509295
8.4490004 14.568 -0.83899999 -0.010141183 0.53485358 -0.56738973 0.77980912
8.1780005 14.201 -0.81099999 0.0014287569 0.53191584 -0.58157969 0.78814429
8.132 14.225 -0.81099999 0.0029050936 0.53243619 -0.57876366 0.78642493
8.0939999 14.262 -0.81199998 0.0004830081 0.53238362 -0.57913321 0.78665608
8.0229998 14.241 -0.80800003 0.0045437193 0.53253144 -0.57810879 0.78601533
7.9850001 14.278 -0.80900002 0.0087637706 0.53281426 -0.57684124 0.78531122
8.0459995 14.441 -0.81999999 0.0080805514 0.53437579 -0.56946611 0.78097016
7.875 14.239 -0.80400002 0.0062934346 0.53175539 -0.58240139 0.78866649
7.8150001 14.235 -0.80199999 0.0081533538 0.53173065 -0.5823015 0.78859305
7.7810001 14.279 -0.80299997 0.0084203165 0.53147441 -0.58435237 0.78993899
7.7069998 14.251 -0.80000001 0.0080173835 0.53126639 -0.58496857 0.7902509
7.6550002 14.261 -0.79900002 0.009019806 0.53205276 -0.58064783 0.7875998
7.5679998 14.206 -0.79299998 0.012874201 0.53116554 -0.58496535 0.79024494
7.5619998 14.247 -0.79500002 0.01559516 0.53114647 -0.58545411 0.79064298
7.4920001 14.223 -0.792 0.019953765 0.53160709 -0.58197987 0.78848261
7.4349999 14.224 -0.79000002 0.018000282 0.53204787 -0.57954288 0.7869364
7.4029999 14.272 -0.792 0.018171962 0.53194749 -0.58063203 0.78767502
7.3369999 14.254 -0.78899997 0.020132393 0.53162533 -0.58169556 0.78828961
7.2909999 14.274 -0.78899997 0.017301518 0.53205544 -0.57961345 0.78697783
7.237 14.279 -0.78799999 0.016525723 0.53206307 -0.57958013 0.78694177
7.1739998 14.266 -0.78500003 0.01300074 0.53183818 -0.5808695 0.78767395
7.1339998 14.241 -0.78299999 0.014779324 0.53158474 -0.58193827 0.78832287
7.1009998 14.287 -0.78399998 0.01507486 0.53186536 -0.58082664 0.78769767
7.0359998 14.268 -0.78100002 0.013461139 0.53142703 -0.58326459 0.78917265
6.9920001 14.293 -0.78200001 0.014446219 0.53144783 -0.5833261 0.78924954
6.8590002 14.247 -0.77600002 0.014478289 0.5319553 -0.57962775 0.78686363
6.809 14.256 -0.77499998 0.018843696 0.53257543 -0.57531434 0.7842055
6.8080001 14.314 -0.778 0.019993231 0.53314811 -0.57228822 0.78240681
6.914 14.656 -0.80000001 0.019389033 0.53381038 -0.57326889 0.78356022
6.6630001 14.237 -0.76999998 0.021778245 0.53199339 -0.57798064 0.78584534
6.6139998 14.248 -0.76899999 0.026631143 0.53161305 -0.57930559 0.78671253
6.5580001 14.246 -0.76700002 0.027867243 0.53139794 -0.58021677 0.78728127
6.5229998 14.288 -0.76899999 0.028475825 0.53155011 -0.57948172 0.78686428
6.4590001 14.265 -0.76599997 0.03260522 0.53148425 -0.57826489 0.78608453
6.421 14.24 -0.764 0.036605425 0.53204745 -0.57281697 0.78264534
6.3569999 14.218 -0.76099998 0.034146469 0.53270483 -0.56878054 0.78003317
6.3249998 14.266 -0.76300001 0.036151733 0.53232968 -0.57114786 0.78159559
6.263 14.247 -0.75999999 0.03723425 0.53299665 -0.56553936 0.77801448
6.2090001 14.245 -0.759 0.038335398 0.53300184 -0.56477767 0.77751809
6.1690001 14.275 -0.759 0.042945378 0.5327329 -0.56475854 0.77756083
6.3039999 14.717 -0.78799999 0.055120692 0.53507501 -0.54302222 0.7643407
6.0539999 14.255 -0.755 0.056377534 0.53245336 -0.55744779 0.77293789
6.1750002 14.606 -0.778 0.058424998 0.53445888 -0.54290545 0.76407206
5.98 14.268 -0.75400001 0.068141684 0.53143966 -0.55502307 0.77144152
5.9169998 14.241 -0.75099999 0.075742945 0.52994591 -0.55869424 0.77376932
5.8720002 14.259 -0.75099999 0.079825543 0.52907878 -0.56040525 0.77482289
5.8099999 14.237 -0.74900001 0.086602002 0.52781361 -0.56050527 0.77476019
5.7600002 14.242 -0.74800003 0.097060785 0.52472204 -0.5694899 0.78043115
5.7490001 14.344 -0.75300002 0.1108674 0.52307928 -0.56272507 0.77624935
5.698 14.28 -0.74800003 0.11315761 0.52200067 -0.56590235 0.77816117
5.6440001 14.276 -0.74699998 0.11900397 0.52237195 -0.55196017 0.76921678
5.6560001 14.441 -0.75700003 0.14004019 0.51691985 -0.55589771 0.7719065
5.5760002 14.367 -0.75099999 0.14812019 0.51542479 -0.54705578 0.76607591
5.5120001 14.336 -0.74699998 0.15633938 0.51305574 -0.54519665 0.7647925
5.4419999 14.286 -0.74299997 0.1631615 0.51002806 -0.55226207 0.76924878
5.4299998 14.391 -0.74900001 0.17742853 0.50654107 -0.5400219 0.76137275
5.3179998 14.298 -0.741 0.19605398 0.49598736 -0.56714261 0.77851874
5.29 14.36 -0.74400002 0.2106185 0.49095482 -0.55974674 0.77376562
5.2340002 14.347 -0.74199998 0.22359611 0.48301816 -0.57248205 0.78168887
5.1950002 14.382 -0.74299997 0.25435001 0.46792987 -0.56655186 0.77758169
5.1529999 14.405 -0.74400002 0.26988548 0.45794579 -0.57149541 0.7804867
5.1440001 14.525 -0.75099999 0.32529867 0.42135006 -0.55357921 0.76798761
5.0689998 14.458 -0.745 0.33125913 0.41238415 -0.57556307 0.78170723
5.1719999 14.826 -0.76899999 0.46067783 0.24160855 -0.57053697 0.77208239
5.0510001 14.627 -0.755 0.41929486 0.3130815 -0.57846475 0.7800318
5.039 14.741 -0.76099998 0.4574939 0.24785036 -0.57192075 0.77319068
5.0890002 15.045 -0.77999997 0.49822092 0.11739765 -0.56981605 0.76596123
5.1550002 15.402 -0.80199999 0.50894272 0.013730181 -0.50006127 0.7136333
5.1570001 15.569 -0.81199998 0.50729471 -0.0053181425 -0.48294324 0.70043588
5.204 15.882 -0.83099997 0.50394756 -0.025244348 -0.46403268 0.68551201
5.2589998 16.135 -0.847 0.50241154 -0.040224325 -0.47948378 0.69565803
5.3670001 16.646999 -0.87900001 0.5007112 -0.048330016 -0.48010638 0.69537735
5.3790002 16.868 -0.89300001 0.50038934 -0.050586984 -0.49107686 0.70292604
5.5999999 17.757 -0.949 0.49280965 -0.073128954 -0.53135085 0.72838378
10.226 14.426 -1.015 0.021991607 0.52112961 -0.63431221 0.82122576
10.141 14.403 -1.01 0.023530336 0.52101183 -0.63412386 0.82104814
10.117 14.464 -1.012 0.017501116 0.52198285 -0.63195097 0.81983805
9.9750004 14.31 -0.99800003 0.0081753498 0.51968455 -0.63814372 0.82302266
9.9020004 14.3 -0.995 0.0023775259 0.52023131 -0.63593912 0.82162333
9.8000002 14.249 -0.98799998 -0.010942163 0.52046478 -0.63304156 0.81960046
9.8459997 14.413 -0.99900001 0.00024473295 0.521779 -0.63164794 0.81928784
9.9020004 14.593 -1.011 0.013597211 0.52401364 -0.62607324 0.81654322
9.5819998 14.315 -0.98299998 -0.015893433 0.52229118 -0.62608135 0.81548673
9.559 14.328 -0.98299998 -0.016037945 0.52230734 -0.62606382 0.81548637
9.4870005 14.318 -0.98000002 -0.018568352 0.52116615 -0.62963945 0.81756026
9.3570004 14.22 -0.96899998 -0.018760405 0.52016193 -0.63184065 0.81862265
9.2799997 14.199 -0.96499997 -0.020259352 0.52056897 -0.62970316 0.81726897
9.2349997 14.228 -0.96499997 -0.022164086 0.52152443 -0.62594116 0.81503457
9.2110004 14.289 -0.96799999 -0.019150065 0.52243382 -0.62391186 0.81398392
9.1490002 14.291 -0.96499997 -0.018500406 0.52415198 -0.61706978 0.8098473
9.1009998 14.265 -0.96200001 -0.019595629 0.52444577 -0.6152606 0.8086859
8.9969997 14.201 -0.95499998 -0.01750569 0.52484798 -0.61347222 0.80753946
8.948 14.222 -0.954 -0.013506129 0.52644145 -0.60806489 0.80440408
8.9139996 14.267 -0.95499998 -0.014413789 0.52712518 -0.6056518 0.80304599
8.8479996 14.261 -0.95300001 -0.015566129 0.52725059 -0.60470176 0.80243361
8.8030005 14.289 -0.95300001 -0.017210159 0.5279634 -0.60104626 0.80018634
8.7460003 14.296 -0.95099998 -0.021945968 0.52795219 -0.59970218 0.79928583
8.618 14.187 -0.94 -0.013953923 0.52951866 -0.5923332 0.7946341
8.5719995 14.163 -0.93699998 -0.012385538 0.52927798 -0.59355605 0.79535991
8.5279999 14.19 -0.93699998 -0.014619684 0.52974498 -0.59094518 0.79376304
8.5389996 14.309 -0.94400001 -0.011869062 0.53055829 -0.5889169 0.79275221
8.4209995 14.214 -0.935 -0.0066068992 0.53129023 -0.58433694 0.78978646
8.3970003 14.275 -0.93699998 -0.0087083234 0.53180677 -0.58190793 0.78835976
8.2930002 14.202 -0.92900002 -0.0033889702 0.5316608 -0.58234078 0.78854007
8.2139997 14.167 -0.92500001 -0.002253578 0.53194487 -0.58031458 0.78723276
8.1800003 14.161 -0.92299998 -0.0012440337 0.5307073 -0.58742589 0.79165709
8.1280003 14.173 -0.92199999 0.0012999568 0.53050685 -0.58881932 0.79255748
8.467 14.871 -0.97500002 -0.0079646399 0.53964889 -0.5312708 0.75731963
8.3030005 14.689 -0.95899999 -0.0060522845 0.53575432 -0.56383765 0.77780604
8.0679998 14.381 -0.93199998 0.0085353572 0.53311777 -0.57664543 0.78537083
7.9400001 14.258 -0.921 0.0062109623 0.53089446 -0.58749241 0.79185534
7.842 14.187 -0.91299999 0.0052326964 0.53068775 -0.58736134 0.79161239
7.8080001 14.231 -0.91500002 0.0077192672 0.5308364 -0.58709514 0.79153496
7.7529998 14.184 -0.91000003 0.0085895574 0.53034103 -0.58919036 0.7927677
7.6680002 14.133 -0.90399998 0.014856789 0.53090638 -0.58507347 0.79018563
7.6220002 14.155 -0.90399998 0.013201305 0.53188235 -0.57969308 0.78684002
7.5650001 14.156 -0.90200001 0.01441041 0.5321942 -0.57793301 0.78577662
7.5310001 14.199 -0.90399998 0.015385687 0.53187203 -0.58033532 0.78734595
7.4499998 14.154 -0.898 0.020845925 0.5318839 -0.57880867 0.78635526
7.4549999 14.271 -0.90600002 0.019294802 0.53207582 -0.57978952 0.78716761
7.3579998 14.139 -0.89499998 0.021778669 0.5319193 -0.57798505 0.78579843
7.3130002 14.162 -0.89499998 0.019761063 0.53167182 -0.57987583 0.78696978
7.27 14.187 -0.89499998 0.015095687 0.53194714 -0.57888645 0.78632385
7.2179999 14.196 -0.89399999 0.015225386 0.53124911 -0.58309734 0.78896129
7.1680002 14.207 -0.89300001 0.012988146 0.53112996 -0.58407885 0.78956687
7.1059999 14.196 -0.88999999 0.015112203 0.53124619 -0.58301735 0.78889805
7.0469999 14.19 -0.88800001 0.01521538 0.5310632 -0.58400732 0.78950882
7.0419998 14.235 -0.89099997 0.014421455 0.53144139 -0.58243436 0.7885859
6.9549999 14.173 -0.884 0.016806737 0.53205717 -0.57757688 0.78546953
6.9060001 14.184 -0.88300002 0.015578629 0.53259623 -0.57437342 0.78345793
6.8540001 14.191 -0.88200003 0.015466908 0.5329985 -0.57186103 0.7818898
6.816 14.227 -0.88300002 0.018194091 0.53292418 -0.57256848 0.78241539
6.7290001 14.158 -0.87599999 0.01695662 0.53332335 -0.56871688 0.77984625
6.6820002 14.176 -0.87599999 0.018422538 0.53289139 -0.57174063 0.78179282
6.6259999 14.171 -0.87400001 0.023880713 0.53226089 -0.57479799 0.78375041
6.8400002 14.686 -0.91299999 0.021239329 0.5334537 -0.5752188 0.78479332
6.5500002 14.182 -0.87300003 0.027830698 0.53247529 -0.57236016 0.78224075
6.494 14.178 -0.87099999 0.031754598 0.53211743 -0.57341439 0.78291851
6.4520001 14.203 -0.87099999 0.036798492 0.53161168 -0.57509756 0.78402954
6.4109998 14.233 -0.87199998 0.036474504 0.53159738 -0.57557869 0.78435767
6.3860002 14.296 -0.875 0.037582539 0.53188324 -0.57405531 0.7834869
6.2989998 14.222 -0.86799997 0.041054524 0.53268659 -0.56567669 0.77809423
6.2740002 14.226 -0.86799997 0.03952428 0.53272188 -0.56609088 0.77834028
6.2280002 14.242 -0.86699998 0.043436572 0.53322846 -0.56030142 0.77469796
6.1880002 14.274 -0.86799997 0.047764 0.53332901 -0.55709893 0.77270985
6.1960001 14.54 -0.88499999 0.06077981 0.53331262 -0.55084401 0.76912004
6.052 14.328 -0.86799997 0.062167704 0.5323056 -0.55451107 0.77116573
5.9429998 14.195 -0.85699999 0.069702789 0.53139871 -0.55224729 0.76955843
5.9200001 14.265 -0.86000001 0.078769937 0.53016663 -0.55321437 0.77027756
5.875 14.221 -0.85699999 0.07956256 0.53002506 -0.55199516 0.76938641
5.823 14.22 -0.85500002 0.086495608 0.52904975 -0.54974079 0.76784772
5.8709998 14.466 -0.87199998 0.10540368 0.52532601 -0.55679214 0.77271914
5.7319999 14.253 -0.85500002 0.10579889 0.52567899 -0.54791236 0.76664186
5.6799998 14.252 -0.85299999 0.12097939 0.52172047 -0.55361867 0.77027392
5.6420002 14.289 -0.85500002 0.13209198 0.51966584 -0.5476799 0.76645559
5.5879998 14.282 -0.85299999 0.13678585 0.51829374 -0.54856259 0.76698089
5.573 14.31 -0.85399997 0.14347532 0.51668257 -0.54662007 0.76572812
5.5180001 14.303 -0.85299999 0.14649327 0.51578039 -0.54652387 0.76562268
5.4949999 14.376 -0.85699999 0.16557427 0.51042008 -0.54231405 0.76292074
5.5089998 14.55 -0.86799997 0.19625252 0.50035697 -0.53098637 0.75552541
5.362 14.298 -0.84899998 0.17951484 0.50518709 -0.54434401 0.76403528
5.4000001 14.536 -0.86500001 0.22866426 0.48607165 -0.52793926 0.7531752
5.277 14.345 -0.85000002 0.21598078 0.49051192 -0.54246598 0.76257396
5.2340002 14.297 -0.84500003 0.22199684 0.48670548 -0.55096543 0.76793736
5.1869998 14.31 -0.84500003 0.24441443 0.47589505 -0.54697323 0.76511061
5.1810002 14.433 -0.85299999 0.27963683 0.45619589 -0.53916502 0.75961196
5.1929998 14.609 -0.86500001 0.3543857 0.39923716 -0.51922607 0.74469811
5.0890002 14.461 -0.85299999 0.33082223 0.41808179 -0.54214376 0.76036543
5.0609999 14.526 -0.85600001 0.37213573 0.38041106 -0.53031832 0.75128895
5.059 14.67 -0.866 0.43226895 0.30435079 -0.51719898 0.73958141
5.0409999 14.767 -0.87099999 0.46586129 0.2396183 -0.53359312 0.74777359
5.1100001 15.045 -0.89099997 0.50035059 0.1329118 -0.51600838 0.73094523
5.0960002 15.159 -0.898 0.50803232 0.073640563 -0.5183056 0.72949332
5.1719999 15.544 -0.92500001 0.50709957 -0.006725397 -0.48128915 0.69916695
5.2010002 15.797 -0.94199997 0.50548714 -0.022546709 -0.49238533 0.70602328
5.244 16.094 -0.96200001 0.50323635 -0.034411307 -0.47588295 0.69346631
5.3590002 16.622999 -1 0.50114661 -0.047691341 -0.50617105 0.71388483
5.4749999 17.164 -1.0369999 0.49677736 -0.0649115 -0.51611191 0.71928626
5.5679998 17.549 -1.0650001 0.49596798 -0.051090073 -0.55606055 0.7468586
10.218 14.413 -1.1 0.042085417 0.51755929 -0.64294267 0.82644665
10.177 14.451 -1.101 0.04284884 0.51903027 -0.63830543 0.82380956
10.046 14.36 -1.09 0.01498301 0.51825261 -0.64345831 0.82634664
9.9949999 14.384 -1.089 0.02351938 0.51885325 -0.64105356 0.82505244
9.9659996 14.389 -1.0880001 0.014149798 0.5191794 -0.64063227 0.82471645
9.9329996 14.439 -1.09 0.012270495 0.52002913 -0.63837498 0.82347041
9.8470001 14.411 -1.085 0.0080640279 0.52046859 -0.63644528 0.82220143
9.8579998 14.524 -1.092 0.011562602 0.52191061 -0.63276941 0.82031792
9.7510004 14.464 -1.084 -0.0062491251 0.52112275 -0.63387012 0.82060909
9.8780003 14.753 -1.107 0.022160534 0.52523822 -0.62294465 0.8151235
9.6029997 14.539 -1.082 -0.011277411 0.52274126 -0.62796587 0.81714547
9.757 14.925 -1.112 0.01982934 0.53236842 -0.59464544 0.79838121
9.5970001 14.781 -1.097 -0.00848707 0.52601963 -0.61908734 0.8124271
9.5290003 14.777 -1.094 -0.0023668222 0.52652448 -0.61759073 0.81157374
9.4580002 14.769 -1.091 -0.0036991155 0.52770585 -0.61218601 0.80824435
9.4110003 14.798 -1.091 0.0024798354 0.52948266 -0.60515434 0.80409563
9.3109999 14.742 -1.0829999 -0.003180881 0.52783334 -0.61092412 0.80737007
9.2639999 14.719 -1.08 -0.00011286791 0.52791971 -0.61052632 0.80711937
9.1140003 14.582 -1.066 -0.0067844335 0.52754283 -0.60908437 0.80581093
8.8830004 14.311 -1.04 -0.014427664 0.52674103 -0.60772789 0.80436152
9.0509996 14.685 -1.0700001 -0.010469299 0.52917665 -0.60262185 0.80205399
8.901 14.543 -1.0549999 -0.018523172 0.52812767 -0.60370433 0.80232215
8.7069998 14.327 -1.034 -0.01654035 0.52863365 -0.59809309 0.79839993
8.6219997 14.288 -1.028 -0.011097286 0.52975875 -0.59300053 0.79524654
8.5240002 14.226 -1.021 -0.0092648827 0.53038567 -0.58910048 0.79273838
8.5509996 14.321 -1.028 -0.009816587 0.53073627 -0.58846188 0.79250538
8.4709997 14.29 -1.023 -0.0072264392 0.53102708 -0.5867824 0.79142624
8.5740004 14.567 -1.044 -0.013142337 0.53201997 -0.58458126 0.79053986
8.4560003 14.472 -1.034 -0.0054899044 0.53198302 -0.58434081 0.79024696
8.3400002 14.376 -1.023 -0.0055878302 0.53214884 -0.58173478 0.78843451
8.3240004 14.452 -1.027 -0.0068934904 0.5325647 -0.58028829 0.78765929
8.1669998 14.282 -1.011 -0.00061823893 0.5298875 -0.59336919 0.79553008
8.0970001 14.212 -1.0039999 0.0023362818 0.52877533 -0.59809065 0.79832405
8.0410004 14.216 -1.002 0.0063073626 0.52944535 -0.59482092 0.79634422
7.994 14.238 -1.002 0.0024489798 0.52953142 -0.5942995 0.79599082
7.9359999 14.239 -1 0.0078212116 0.52964795 -0.59376222 0.79570198
7.8590002 14.206 -0.995 0.0065614064 0.53026897 -0.58982873 0.79317474
8.2399998 15.009 -1.0599999 -0.00304846 0.54106194 -0.48839551 0.72889471
7.7579999 14.234 -0.99299997 0.009665845 0.53088146 -0.58674443 0.79132646
7.71 14.199 -0.98900002 0.013134845 0.53121346 -0.58428371 0.78977698
7.6919999 14.272 -0.99299997 0.011570763 0.53186715 -0.58144695 0.78809714
7.6560001 14.312 -0.995 0.0098509854 0.53231877 -0.57951778 0.78695691
7.5739999 14.267 -0.98900002 0.014240856 0.5319314 -0.58103371 0.78787941
7.5300002 14.293 -0.98900002 0.015668504 0.53188509 -0.58154577 0.78825295
7.4359999 14.221 -0.98100001 0.01827915 0.53183585 -0.58040559 0.78743517
7.3940001 14.25 -0.98100001 0.01715559 0.5319801 -0.57994533 0.78716815
7.4380002 14.447 -0.99599999 0.017894015 0.53164411 -0.58459353 0.7903893
7.3109999 14.254 -0.97899997 0.017123394 0.53148293 -0.58249068 0.78870952
7.2509999 14.247 -0.97600001 0.015417378 0.53181607 -0.5805167 0.78744251
7.2449999 14.348 -0.98299998 0.011604886 0.53160799 -0.5832811 0.78927726
7.1820002 14.333 -0.98000002 0.010269692 0.53161597 -0.58292007 0.78899735
7.125 14.332 -0.97799999 0.010412753 0.53171164 -0.58232963 0.78862756
7.072 14.338 -0.977 0.014843198 0.53128052 -0.58467346 0.79014075
6.9109998 14.18 -0.96100003 0.018909846 0.5311203 -0.58292878 0.78882968
7.0609999 14.606 -0.99400002 0.014810831 0.53295982 -0.57857126 0.78677201
6.9580002 14.507 -0.98400003 0.018842204 0.53210098 -0.5818342 0.78868085
6.7930002 14.278 -0.96399999 0.017768435 0.53202492 -0.57889491 0.78643852
6.7360001 14.273 -0.96100003 0.019644771 0.53137666 -0.58237433 0.78861076
6.6680002 14.245 -0.95700002 0.019175382 0.53120691 -0.58296335 0.78891999
6.638 14.297 -0.95999998 0.019604318 0.531156 -0.58373475 0.78946644
6.5809999 14.292 -0.958 0.022090614 0.53134513 -0.58208621 0.78844148
6.5409999 14.264 -0.95499998 0.030256653 0.53157055 -0.5784601 0.7861926
6.4910002 14.272 -0.954 0.031584918 0.53139961 -0.57907832 0.78658432
6.4419999 14.283 -0.95300001 0.036173459 0.53146333 -0.57713521 0.78539598
6.3800001 14.265 -0.94999999 0.041848145 0.53189075 -0.57169873 0.78198367
6.4130001 14.462 -0.96399999 0.041535404 0.53245455 -0.57070756 0.78162658
6.3940001 14.542 -0.96899998 0.051759481 0.5321129 -0.5685302 0.78041643
6.204 14.29 -0.94599998 0.055046462 0.53264678 -0.55776143 0.77320147
6.152 14.295 -0.94499999 0.055487722 0.53276569 -0.5562256 0.77220792
6.1199999 14.344 -0.94800001 0.061287515 0.53188902 -0.55917948 0.77417296
6.0450001 14.293 -0.94199997 0.063885041 0.5323379 -0.55178046 0.76936769
5.9990001 14.308 -0.94199997 0.069249623 0.53120989 -0.5564093 0.77237993
5.9369998 14.286 -0.93900001 0.076912433 0.53046787 -0.55325484 0.77032626
5.8850002 14.288 -0.93699998 0.08970619 0.52818167 -0.55503571 0.77141935
5.8569999 14.283 -0.93599999 0.09124323 0.52768195 -0.55641532 0.77225101
5.8340001 14.355 -0.94 0.10040957 0.52565813 -0.55986792 0.77450025
5.855 14.538 -0.95300001 0.11592226 0.52345353 -0.5542165 0.77110147
5.7360001 14.373 -0.93900001 0.12330418 0.52126276 -0.55496049 0.77129751
5.684 14.372 -0.93699998 0.13523327 0.51849008 -0.55246568 0.7696352
5.7010002 14.55 -0.94999999 0.15436195 0.51316553 -0.55393195 0.77071851
5.7360001 14.778 -0.96700001 0.21285692 0.49455181 -0.51772505 0.74694633
5.6100001 14.587 -0.94999999 0.19318995 0.50061691 -0.54393178 0.76406902
5.4260001 14.307 -0.926 0.16783093 0.50780356 -0.55772841 0.77271771
5.4089999 14.401 -0.93199998 0.18686149 0.50211132 -0.54929543 0.76730597
5.3530002 14.388 -0.93000001 0.20066486 0.49675363 -0.54757488 0.76607364
5.2979999 14.378 -0.92799997 0.21406503 0.49091524 -0.5474422 0.76584238
5.2519999 14.393 -0.92699999 0.25425404 0.47086182 -0.54501098 0.76380163
5.2199998 14.445 -0.93000001 0.28276896 0.45420066 -0.53897405 0.75944024
5.2470002 14.592 -0.94099998 0.33668742 0.41436988 -0.53179258 0.75356764
5.2800002 14.833 -0.95899999 0.42666373 0.31262508 -0.52534527 0.7454958
5.1869998 14.717 -0.94800001 0.40514222 0.34317887 -0.51734048 0.74131846
5.197 14.896 -0.96100003 0.47125399 0.22845393 -0.52559233 0.74196953
5.5349998 16.030001 -1.048 0.50578833 -0.0060282201 -0.46018857 0.68383604
5.1389999 15.19 -0.98000002 0.50758731 0.076497264 -0.47336346 0.69826192
5.178 15.385 -0.995 0.50871891 0.020608736 -0.47518638 0.69643503
5.243 15.744 -1.021 0.5066247 -0.0097514018 -0.51824051 0.7248013
5.2779999 16.016001 -1.041 0.50374299 -0.029333077 -0.52610338 0.72897339
5.3260002 16.336 -1.0650001 0.50523931 -0.022541188 -0.48802924 0.70281392
5.3460002 16.577 -1.082 0.50221598 -0.03298701 -0.53688371 0.73590297
5.4809999 17.181 -1.127 0.49239811 -0.07339678 -0.54879111 0.74095523
5.427 17.200001 -1.128 0.49428484 -0.066969857 -0.54552573 0.73918927
10.217 14.308 -1.209 0.056727003 0.51132369 -0.65725791 0.83466029
10.132 14.237 -1.201 0.034476914 0.51437718 -0.65241027 0.83151168
10.176 14.394 -1.2130001 0.053446457 0.51278615 -0.65472883 0.83335233
10.178 14.493 -1.22 0.070391268 0.51369476 -0.64723623 0.82930809
10.023 14.368 -1.204 0.028577767 0.51646435 -0.64806223 0.82917839
9.9860001 14.411 -1.205 0.028396219 0.51697671 -0.64683431 0.8285324
10.002 14.53 -1.214 0.028061006 0.51872474 -0.64261848 0.82633007
9.8979998 14.478 -1.206 0.019239455 0.51773763 -0.64596105 0.82806283
9.842 14.444 -1.201 0.013714053 0.51850927 -0.64329404 0.82635778
9.7030001 14.338 -1.188 -0.0096303578 0.5131188 -0.65783048 0.83434081
9.5880003 14.264 -1.178 -0.010594128 0.51305228 -0.65698308 0.83364356
9.5340004 14.281 -1.177 -0.013218589 0.51414257 -0.65347326 0.83159167
9.4720001 14.284 -1.174 -0.01263188 0.51572675 -0.64856863 0.82871884
9.415 14.296 -1.1720001 -0.013464162 0.51588625 -0.6480391 0.82841688
9.3590002 14.309 -1.171 -0.014232249 0.51676762 -0.64514267 0.8267166
9.323 14.351 -1.1720001 -0.0080294097 0.51888829 -0.63942289 0.82351148
9.3120003 14.384 -1.174 -0.0071496265 0.51948291 -0.63783139 0.82264364
9.3260002 14.605 -1.189 -0.0046439264 0.52273756 -0.62916636 0.81800151
9.2040005 14.515 -1.178 -0.0002707541 0.52324843 -0.62626499 0.81608629
9.5299997 15.132 -1.234 0.044720996 0.4783563 -0.74053764 0.88273478
9.0790005 14.519 -1.173 -0.0074083218 0.52461368 -0.62020278 0.8123582
8.816 14.199 -1.14 -0.0070360322 0.52648836 -0.60871601 0.8048445
8.8070002 14.234 -1.142 -0.010220655 0.52633011 -0.60914469 0.80509943
8.7060003 14.17 -1.133 -0.017033672 0.52128273 -0.62724108 0.81575561
8.6969995 14.256 -1.1390001 -0.011161382 0.52807915 -0.60085797 0.80001402
8.6330004 14.252 -1.136 -0.012389188 0.52559948 -0.61176145 0.8066352
8.6049995 14.306 -1.138 -0.0045842649 0.52959371 -0.59503531 0.79659122
8.5030003 14.238 -1.1289999 -0.011770869 0.52488643 -0.61464977 0.80835557
8.4919996 14.323 -1.135 -0.010282417 0.52810478 -0.60160172 0.80057794
8.3529997 14.139 -1.1160001 -0.0026581101 0.52515101 -0.6135515 0.80761135
8.309 14.165 -1.1160001 -0.0010569319 0.52606142 -0.61008191 0.80556917
8.2469997 14.162 -1.114 0.0010202946 0.52647901 -0.60827166 0.80447221
8.243 14.258 -1.12 -0.004961147 0.52804703 -0.60160565 0.80049211
8.1370001 14.177 -1.11 0.001190817 0.52768445 -0.60280061 0.80113727
8.0649996 14.154 -1.1059999 0.0077910447 0.5277431 -0.60243118 0.80093491
8.0109997 14.164 -1.104 0.0072280047 0.52765143 -0.60268247 0.80105835
7.9790001 14.211 -1.1059999 0.0067260363 0.52876824 -0.59781808 0.79814005
8.1049995 14.488 -1.131 -0.00023428444 0.53115469 -0.58914763 0.79323411
7.9879999 14.385 -1.119 0.0068920902 0.52983218 -0.59465712 0.79648399
7.941 14.406 -1.119 0.0086331498 0.53036916 -0.59211999 0.7949667
7.7189999 14.216 -1.097 0.015751077 0.53114986 -0.58460081 0.79001671
7.7249999 14.333 -1.105 0.013548389 0.53095663 -0.58730471 0.79184932
7.9910002 14.937 -1.158 -0.026491597 0.53816348 -0.53653431 0.76038855
7.5869999 14.237 -1.0930001 0.019476615 0.53140754 -0.58305967 0.78913361
7.5440001 14.265 -1.094 0.019177599 0.53188515 -0.58062875 0.78765434
7.4899998 14.271 -1.092 0.017968707 0.53246474 -0.5772149 0.78550535
7.552 14.499 -1.11 0.012901444 0.53206754 -0.58352852 0.78978974
7.3150001 14.153 -1.077 0.014137523 0.52875811 -0.59610683 0.79694939
7.2690001 14.174 -1.077 0.013308785 0.52870512 -0.59648997 0.79718661
7.2259998 14.199 -1.077 0.011289505 0.52907169 -0.59494978 0.79624718
7.1799998 14.219 -1.077 0.010285846 0.52960032 -0.59244442 0.79471552
7.1399999 14.195 -1.074 0.009646954 0.52909517 -0.59472567 0.79607373
7.1539998 14.335 -1.084 0.011777701 0.53161609 -0.58281183 0.78893852
7.0570002 14.252 -1.075 0.016782884 0.52947795 -0.5930348 0.79518479
7.1929998 14.641 -1.108 0.010981107 0.53213567 -0.58428663 0.79036689
6.954 14.269 -1.072 0.023628676 0.52953297 -0.59208006 0.79468375
6.8870001 14.246 -1.068 0.022322632 0.52948993 -0.59224558 0.79474068
6.8410001 14.264 -1.068 0.019970801 0.53019267 -0.58893961 0.79268718
6.7680001 14.171 -1.059 0.021383192 0.53144115 -0.58033574 0.78719532
6.7080002 14.16 -1.056 0.019917494 0.53141254 -0.5804832 0.78724629
6.678 14.211 -1.059 0.021274325 0.53164214 -0.57951051 0.78672004
6.6170001 14.196 -1.0549999 0.024727698 0.53089213 -0.5831477 0.78899884
6.6009998 14.278 -1.061 0.024406375 0.53123963 -0.5821203 0.78846383
6.4590001 14.207 -1.051 0.040825784 0.53169483 -0.57283187 0.78262538
6.6500001 14.685 -1.092 0.033618283 0.53321093 -0.57268977 0.7832098
6.441 14.344 -1.0599999 0.042270768 0.53217435 -0.57065153 0.78143424
6.3590002 14.283 -1.053 0.045946114 0.53200418 -0.56890088 0.78024852
6.2789998 14.224 -1.046 0.051997412 0.53175634 -0.56602526 0.77836567
6.2119999 14.193 -1.0420001 0.051687669 0.53220487 -0.56214041 0.77583212
6.1630001 14.203 -1.041 0.056521364 0.53232807 -0.5576213 0.77298731
6.2810001 14.598 -1.074 0.068963498 0.53129125 -0.56119907 0.77586776
6.211 14.623 -1.074 0.073290437 0.53129458 -0.55661154 0.77295661
6.033 14.331 -1.046 0.065511279 0.53159559 -0.557226 0.77290779
5.927 14.204 -1.034 0.073910728 0.53084385 -0.5519827 0.76937824
5.8759999 14.208 -1.0319999 0.0815681 0.52951699 -0.55340445 0.77025843
6.0640001 14.792 -1.082 0.112238 0.52703565 -0.53306437 0.75797206
5.8140001 14.311 -1.038 0.1067234 0.52523285 -0.55202222 0.76940757
6 14.9 -1.0880001 0.16829759 0.51278138 -0.51188684 0.74383932
5.7030001 14.231 -1.029 0.11590482 0.52344584 -0.5479936 0.76663321
5.6609998 14.256 -1.03 0.12233066 0.5217452 -0.55002081 0.767923
5.6160002 14.272 -1.029 0.1312591 0.51978475 -0.54775274 0.76644516
5.5469999 14.23 -1.024 0.13666201 0.51808387 -0.5492698 0.76732308
5.5029998 14.25 -1.024 0.14572881 0.51567161 -0.54859126 0.76688099
5.4819999 14.326 -1.03 0.1695869 0.5091303 -0.54038203 0.76156819
5.427 14.317 -1.027 0.18328166 0.50429416 -0.53944021 0.76085514
5.3979998 14.311 -1.026 0.19065535 0.50157374 -0.53808475 0.7599085
5.4419999 14.563 -1.046 0.24867146 0.47552139 -0.53141117 0.7552191
5.7550001 15.544 -1.1289999 0.49364641 0.16215909 -0.47760573 0.70575464
5.2919998 14.438 -1.033 0.25916019 0.46973169 -0.52643239 0.75162685
5.3600001 14.765 -1.059 0.35471776 0.39871451 -0.52556092 0.74900752
5.1550002 14.343 -1.022 0.27848047 0.45755202 -0.52960467 0.75325048
5.1240001 14.399 -1.025 0.32249418 0.42651281 -0.52274734 0.74778366
5.0679998 14.387 -1.023 0.31137702 0.43523329 -0.52158898 0.74728757
5.0749998 14.478 -1.03 0.36699721 0.38649356 -0.51952487 0.74429184
5.1030002 14.704 -1.048 0.42226478 0.31960166 -0.51678222 0.73994368
5.1490002 14.988 -1.0700001 0.48943901 0.17748126 -0.51971734 0.73563319
5.1350002 15.1 -1.0779999 0.50228631 0.121593 -0.51860195 0.73213685
5.132 15.248 -1.09 0.50942433 0.049561642 -0.50761235 0.72086042
5.1620002 15.497 -1.109 0.50930661 0.024463842 -0.50266743 0.71600711
5.204 15.787 -1.133 0.50463533 0.01014783 -0.5608058 0.75449514
5.21 15.888 -1.14 0.50254828 -0.011273995 -0.56296772 0.75472814
5.3769999 16.57 -1.197 0.50212198 -0.015973125 -0.56026471 0.75251454
5.5669999 17.336 -1.26 0.49995199 -0.023236476 -0.564888 0.7547121
5.5549998 17.486 -1.271 0.50307339 0.011500262 -0.5692178 0.75975263
10.275 14.383 -1.319 -0.022347178 0.51053226 -0.66430116 0.83811611
10.129 14.272 -1.304 0.052929908 0.50779676 -0.66795164 0.840725
10.058 14.267 -1.3 0.016583713 0.5029794 -0.68571144 0.85056657
10.049 14.302 -1.302 0.030223209 0.50944895 -0.66795689 0.8406058
10.02 14.356 -1.304 0.040493857 0.51358002 -0.65485579 0.83321083
9.9139996 14.299 -1.295 0.013373349 0.50335258 -0.68496597 0.85013002
9.842 14.291 -1.291 0.013950993 0.50285238 -0.68612134 0.85077471
9.7810001 14.299 -1.288 0.0073812911 0.50380456 -0.68374777 0.8493436
9.7530003 14.354 -1.291 0.0024239314 0.50741005 -0.67485446 0.84433371
9.6949997 14.367 -1.289 -0.0037207082 0.51040566 -0.66643184 0.83943981
9.6660004 14.372 -1.288 -0.00091468636 0.5104934 -0.66640228 0.83946192
9.5939999 14.362 -1.284 -0.0056142556 0.51202983 -0.66145891 0.836501
9.6149998 14.492 -1.294 -0.0067139091 0.51627427 -0.64993286 0.8300584
9.5179996 14.444 -1.286 -0.0078286221 0.51565719 -0.65106064 0.83056825
9.4370003 14.419 -1.28 -0.013881974 0.51641053 -0.64756614 0.82838064
9.2989998 14.306 -1.266 -0.0069411276 0.51614702 -0.64792609 0.82841063
9.217 14.277 -1.26 -0.0017281752 0.5169692 -0.64527678 0.82682663
9.2069998 14.311 -1.262 -0.0012861639 0.51826024 -0.64142793 0.8246364
9.0959997 14.236 -1.251 -0.0043057911 0.51960427 -0.63559949 0.82097125
9.007 14.195 -1.244 0.001368193 0.52235097 -0.62562996 0.81502467
9.0080004 14.296 -1.252 -0.0051476425 0.52225202 -0.62656713 0.81569606
8.8990002 14.221 -1.2410001 -0.0060861353 0.52206385 -0.6268335 0.81578666
8.8149996 14.186 -1.235 -0.015807562 0.516846 -0.64357162 0.82556897
8.7860003 14.239 -1.237 -0.015740898 0.51957363 -0.63454539 0.82027578
8.8909998 14.512 -1.262 -0.012525626 0.52560359 -0.61526418 0.80929971
8.8850002 14.553 -1.265 -0.0077650361 0.52608514 -0.61451602 0.80898446
8.7150002 14.375 -1.244 -0.0082922243 0.52816945 -0.60236299 0.80116975
8.698 14.45 -1.249 -0.0070337746 0.52903038 -0.59945089 0.79953986
8.4779997 14.184 -1.22 -0.004208345 0.52103692 -0.63007784 0.81761563
8.4160004 14.182 -1.217 0.0017726803 0.52351731 -0.62105221 0.81226802
8.349 14.168 -1.2130001 0.0043229456 0.5239175 -0.61929703 0.81119484
8.3280001 14.236 -1.217 0.0030697598 0.5254882 -0.61351472 0.80780417
8.2600002 14.17 -1.209 0.0032297703 0.52516383 -0.61404103 0.80799371
8.2270002 14.216 -1.211 0.00096855592 0.5266971 -0.6078164 0.8042708
8.1569996 14.197 -1.207 0.0029918556 0.52717358 -0.60543001 0.80278665
8.0340004 14.189 -1.201 0.011477499 0.52793849 -0.60162151 0.80049938
7.9699998 14.179 -1.197 0.011258149 0.52863032 -0.59798938 0.79822803
7.954 14.257 -1.202 0.013150881 0.52908909 -0.59654552 0.79748029
7.8740001 14.217 -1.196 0.014820281 0.52978069 -0.59216583 0.79469967
7.7639999 14.175 -1.188 0.017121494 0.53097296 -0.58481205 0.79008263
7.6950002 14.154 -1.184 0.018482462 0.53169137 -0.58008265 0.78710431
7.6719999 14.219 -1.188 0.01821281 0.53137392 -0.58294272 0.78899437
7.6409998 14.269 -1.1900001 0.016788991 0.53152388 -0.58285588 0.78899968
7.9640002 14.987 -1.258 -0.043230392 0.53799307 -0.47963205 0.72204727
7.553 14.32 -1.191 0.016695797 0.53219408 -0.57975984 0.7871663
7.5300002 14.33 -1.191 0.016942095 0.5320251 -0.58085263 0.78786266
7.5159998 14.414 -1.196 0.016239377 0.53255141 -0.57899415 0.78683472
7.5029998 14.5 -1.202 0.014737387 0.53319192 -0.57636738 0.78530896
7.6880002 14.974 -1.2460001 -0.067502096 0.53394628 -0.53049821 0.75570065
7.6069999 15.167 -1.258 -0.14347614 0.51117128 -0.41828707 0.67590356
7.4460001 14.904 -1.2309999 0.0061303489 0.53473181 -0.57343847 0.78409654
7.0749998 14.271 -1.168 0.020871431 0.53011984 -0.589405 0.79300749
7.0380001 14.31 -1.17 0.01913131 0.52990401 -0.5912115 0.79416329
6.9689999 14.282 -1.165 0.021544475 0.53025067 -0.5887413 0.79261988
6.8530002 14.269 -1.16 0.023644991 0.53024548 -0.58804417 0.79215866
6.7839999 14.24 -1.155 0.024098821 0.53011018 -0.58829963 0.79227144
6.7459998 14.276 -1.156 0.022664674 0.53110015 -0.58347356 0.78931773
6.7389998 14.321 -1.16 0.024231162 0.53128898 -0.5825882 0.78883719
6.645 14.235 -1.149 0.023577301 0.53132647 -0.58122146 0.78783381
6.5640001 14.178 -1.142 0.029624529 0.531138 -0.58008999 0.78707665
6.5320001 14.226 -1.145 0.037849348 0.53166461 -0.57471097 0.78383195
6.4650002 14.198 -1.14 0.043817695 0.53122926 -0.57439786 0.78361815
6.4039998 14.181 -1.137 0.044992123 0.53168976 -0.57029438 0.78099555
6.369 14.222 -1.1390001 0.045246445 0.53194952 -0.56880844 0.78010291
6.3330002 14.202 -1.136 0.049547937 0.53191453 -0.56622976 0.77846271
6.3049998 14.259 -1.1390001 0.055729754 0.5318383 -0.56336331 0.77674711
6.289 14.344 -1.145 0.059148155 0.53190792 -0.56138849 0.77561688
6.1729999 14.201 -1.13 0.059108362 0.53212202 -0.55705845 0.77263302
6.1279998 14.22 -1.13 0.062854648 0.53169167 -0.55740583 0.77288294
6.0760002 14.221 -1.128 0.061468434 0.53206915 -0.55543745 0.77161306
6.0510001 14.288 -1.133 0.066024974 0.53133905 -0.55813932 0.77343392
6.02 14.275 -1.131 0.068794332 0.53155977 -0.55300283 0.77013028
5.9439998 14.221 -1.124 0.076180309 0.53082883 -0.54949594 0.7678076
5.9899998 14.459 -1.1440001 0.085777275 0.52961314 -0.55170649 0.76956338
5.875 14.308 -1.1289999 0.09647046 0.52789152 -0.54634982 0.76581597
5.8119998 14.282 -1.124 0.1055347 0.52607179 -0.54557377 0.76520574
5.954 14.766 -1.168 0.14134093 0.51924497 -0.53830427 0.76115972
5.7360001 14.353 -1.128 0.12659697 0.52194947 -0.53979993 0.7614736
5.7020001 14.399 -1.13 0.14376366 0.51768243 -0.53723705 0.75979388
5.6630001 14.365 -1.126 0.14400662 0.5175097 -0.53738129 0.75982422
5.677 14.535 -1.14 0.17316052 0.50849807 -0.53867596 0.76074088
5.5289998 14.289 -1.1160001 0.15093088 0.5131014 -0.5583601 0.7731877
5.4790001 14.291 -1.115 0.15755102 0.5093118 -0.57078522 0.7810356
5.4260001 14.288 -1.113 0.17311136 0.50309491 -0.57705808 0.78490001
5.711 15.186 -1.194 0.45369664 0.26805517 -0.49276805 0.72146696
5.6440001 15.153 -1.189 0.46309304 0.24714512 -0.52574831 0.74293149
5.3330002 14.382 -1.118 0.21985988 0.48729137 -0.55561984 0.77104127
5.4790001 14.923 -1.166 0.39158538 0.36073166 -0.50388879 0.73305547
5.5479999 15.261 -1.1950001 0.49470225 0.14983483 -0.45102897 0.68600869
5.217 14.486 -1.123 0.32109055 0.4285014 -0.50481039 0.73589814
5.1339998 14.398 -1.113 0.3047055 0.43319702 -0.57687777 0.78313029
5.0939999 14.429 -1.114 0.35476249 0.39190319 -0.57041955 0.77770364
5.0780001 14.529 -1.122 0.38832271 0.3638736 -0.50785381 0.73560452
5.098 14.662 -1.133 0.41271171 0.33345959 -0.50802529 0.73458552
5.1199999 14.875 -1.151 0.46916363 0.23409258 -0.51949275 0.73809659
5.0910001 14.944 -1.156 0.48591155 0.18766232 -0.5277397 0.74150956
5.1900001 15.397 -1.196 0.50780129 0.047735482 -0.53966326 0.74254787
5.1919999 15.562 -1.209 0.50558865 0.023469148 -0.55884594 0.75397581
5.2150002 15.8 -1.229 0.50298476 0.018068288 -0.57533777 0.76441723
5.3860002 16.495001 -1.291 0.49960449 -0.016394846 -0.57761103 0.76387691
5.3569999 16.582001 -1.2970001 0.49929944 -0.026241135 -0.57119226 0.75911075
5.5640001 17.319 -1.363 0.49238232 -0.025746547 -0.60508114 0.78052956
5.6110001 17.658001 -1.392 0.48970351 0.14396332 -0.60046303 0.78809315
10.263 14.122 -1.404 0.076940581 0.45998049 -0.75952673 0.89128155
10.263 14.215 -1.41 0.015921172 0.49437374 -0.70539755 0.8615362
10.247 14.288 -1.415 0.021747205 0.5047338 -0.68126655 0.84814698
10.273 14.419 -1.426 -0.044631355 0.50345898 -0.67821217 0.84583372
10.242 14.472 -1.429 -0.045706581 0.50578403 -0.67229706 0.84254968
9.9659996 14.177 -1.392 0.039892156 0.48039806 -0.73141587 0.87598109
10.001 14.321 -1.404 0.035337925 0.4899486 -0.71396834 0.86663097
10.046 14.435 -1.415 0.056521676 0.5054478 -0.67472136 0.84493852
9.9469995 14.388 -1.4069999 0.02401289 0.49757779 -0.69888377 0.85825336
9.7340002 14.176 -1.38 0.020602647 0.49273625 -0.70814186 0.86294752
9.6999998 14.221 -1.381 0.015300255 0.49561948 -0.70230842 0.85971504
9.5749998 14.135 -1.368 0.0083610611 0.50049675 -0.69036794 0.85274541
9.6219997 14.3 -1.383 0.0054825484 0.50278604 -0.68615103 0.85066271
9.5139999 14.236 -1.373 0.00098926853 0.50534397 -0.67886186 0.84630185
9.4510002 14.238 -1.37 -0.00029799156 0.50621581 -0.67646068 0.84489852
9.4630003 14.306 -1.376 -0.00072099641 0.50718367 -0.6744805 0.84389555
9.3710003 14.264 -1.368 -0.0054278374 0.50923055 -0.66815895 0.8401081
9.29 14.238 -1.362 -0.0013799723 0.51287287 -0.65770078 0.83403289
9.2130003 14.217 -1.3559999 0.0042127734 0.51447576 -0.65286905 0.83122861
9.1370001 14.295 -1.358 0.0037893294 0.51656806 -0.64687133 0.82782817
9.0780001 14.302 -1.3559999 0.0020748018 0.51811308 -0.64173943 0.82478786
9.0249996 14.269 -1.351 0.0071313316 0.51942354 -0.63699704 0.82195914
9.0550003 14.415 -1.364 -0.0022228928 0.51931483 -0.63865089 0.82314503
9.3789997 15.034 -1.428 0.053582188 0.43318442 -0.80615073 0.91673267
8.7939997 14.198 -1.334 -0.012921107 0.50944871 -0.66633368 0.83887154
8.7089996 14.161 -1.327 -0.01270464 0.51166755 -0.65942615 0.83475024
8.776 14.37 -1.347 -0.0067180265 0.52162683 -0.62953824 0.81759286
8.6210003 14.217 -1.327 -0.0050930483 0.51610482 -0.64720011 0.82780319
8.5240002 14.157 -1.318 -0.0023912145 0.51739466 -0.64262336 0.82502592
8.5229998 14.206 -1.322 -0.0058759805 0.51715696 -0.64346373 0.82554919
8.4350004 14.159 -1.314 0.0071354955 0.52019876 -0.63347 0.81972063
8.3719997 14.155 -1.311 0.0084481528 0.52194977 -0.62694323 0.81581903
8.368 14.25 -1.318 0.0069075087 0.52345812 -0.62197059 0.81295979
8.2399998 14.133 -1.303 0.010241096 0.52437407 -0.61699998 0.80979139
8.1809998 14.135 -1.3 0.008895155 0.52536225 -0.61272883 0.80716866
8.1780005 14.233 -1.308 0.0084323157 0.52700084 -0.60673845 0.80369931
8.1309996 14.203 -1.303 0.010933097 0.52707696 -0.60593647 0.80317408
8.1969995 14.422 -1.324 0.0012676362 0.52875853 -0.60064995 0.80022967
8.0769997 14.316 -1.3099999 0.012512977 0.52915788 -0.59720743 0.79801089
7.8969998 14.102 -1.285 0.015471124 0.52346927 -0.61940706 0.81112546
7.8369999 14.097 -1.281 0.013001109 0.52186704 -0.62571657 0.81488371
7.7789998 14.097 -1.279 0.011972568 0.5200876 -0.63229525 0.81879896
7.7379999 14.128 -1.28 0.01295987 0.52294737 -0.62182122 0.81259066
7.7160001 14.141 -1.28 0.010104156 0.52383381 -0.61845714 0.81055117
7.6370001 14.102 -1.273 0.016471833 0.52176178 -0.62598705 0.81508678
7.6030002 14.145 -1.275 0.016904287 0.52363628 -0.61900765 0.81095695
7.5599999 14.171 -1.275 0.017234167 0.52413434 -0.61719799 0.80990565
7.5159998 14.196 -1.275 0.014531577 0.52546698 -0.61208206 0.80682784
7.4970002 14.267 -1.28 0.016582757 0.5284645 -0.59900606 0.79897308
7.4029999 14.197 -1.271 0.012947371 0.52566206 -0.61108834 0.8061744
7.3319998 14.169 -1.265 0.016357947 0.525922 -0.60935527 0.80509341
7.336 14.232 -1.271 0.010064989 0.52703714 -0.60527027 0.80263418
7.3260002 14.322 -1.278 0.0089251343 0.52906662 -0.59653711 0.79740053
7.2449999 14.276 -1.27 0.011293132 0.52848899 -0.59850138 0.79851866
7.1849999 14.268 -1.267 0.01300133 0.52865213 -0.59755176 0.79794127
7.1370001 14.284 -1.267 0.01683546 0.52952266 -0.59304833 0.79522574
7.3189998 14.762 -1.313 0.0075796293 0.53379798 -0.5762763 0.78555214
7.2199998 14.678 -1.302 0.013664375 0.53342605 -0.57681727 0.78577876
6.908 14.215 -1.252 0.026404761 0.52898085 -0.59359962 0.79553658
6.8540001 14.216 -1.25 0.025770359 0.52914578 -0.59288186 0.79509014
6.7670002 14.152 -1.2410001 0.026471259 0.52945018 -0.59026486 0.79336673
6.7680001 14.268 -1.251 0.026878722 0.52998775 -0.58868784 0.79256725
6.7030001 14.246 -1.2460001 0.028495766 0.53036606 -0.58589882 0.79080814
6.7119999 14.381 -1.258 0.027477561 0.53163409 -0.5805192 0.78764987
6.7010002 14.417 -1.26 0.029355681 0.53218287 -0.5769859 0.78548908
6.625 14.372 -1.2539999 0.033461221 0.53186762 -0.57703531 0.78547603
6.4699998 14.154 -1.229 0.044977982 0.5315063 -0.57135254 0.78164297
6.408 14.373 -1.245 0.055533934 0.5320127 -0.56411546 0.77739805
6.2529998 14.267 -1.2309999 0.059595153 0.53155327 -0.56243998 0.7761696
6.2160001 14.244 -1.227 0.058203213 0.53187966 -0.56042999 0.77483249
6.1360002 14.183 -1.219 0.06650427 0.53123289 -0.55716902 0.7727021
6.0910001 14.2 -1.219 0.065406099 0.53164136 -0.55498391 0.77131552
6.0349998 14.192 -1.216 0.062484626 0.5302099 -0.56839454 0.77980715
6.0079999 14.253 -1.221 0.073399 0.53092527 -0.55297768 0.77009958
5.9889998 14.334 -1.227 0.082394458 0.53035367 -0.54758871 0.76675761
5.882 14.204 -1.212 0.07745374 0.52618307 -0.58108324 0.78773433
5.8639998 14.224 -1.2130001 0.081478335 0.52593112 -0.5788241 0.78630757
5.8150001 14.232 -1.212 0.086343706 0.52453774 -0.58202553 0.78825682
5.8280001 14.392 -1.226 0.1159088 0.52511775 -0.53307718 0.75720197
5.836 14.541 -1.239 0.13107049 0.52179682 -0.53243536 0.75692725
5.6279998 14.283 -1.21 0.1311093 0.51522267 -0.5812214 0.78769433
5.5830002 14.301 -1.21 0.14078465 0.51325119 -0.57755542 0.7853772
5.7340002 14.753 -1.2539999 0.21320128 0.49434662 -0.51652277 0.74607581
5.572 14.474 -1.225 0.19589245 0.50120437 -0.51584709 0.74543804
5.9549999 15.607 -1.334 0.35937172 0.23871572 -0.79462981 0.90419561
5.6370001 14.92 -1.265 0.33136934 0.42080498 -0.50588101 0.73674828
5.3530002 14.306 -1.2029999 0.19182014 0.4938156 -0.58924901 0.79237819
5.5479999 14.966 -1.266 0.39307526 0.35888207 -0.50836122 0.73602694
5.2659998 14.346 -1.204 0.21735056 0.48446128 -0.5806976 0.78686321
5.2059999 14.322 -1.2 0.22592585 0.47784004 -0.59306991 0.79442149
5.21 14.405 -1.207 0.28675935 0.44601652 -0.5766378 0.78337276
5.1199999 14.296 -1.1950001 0.23875517 0.46877262 -0.60375082 0.80079138
5.1079998 14.405 -1.204 0.33626524 0.40526971 -0.58737022 0.78887361
5.0760002 14.459 -1.207 0.36828804 0.37473497 -0.58549362 0.7866798
5.112 14.706 -1.23 0.41822305 0.32592267 -0.49069837 0.72244096
5.1009998 14.826 -1.24 0.45514062 0.2650094 -0.50172746 0.72740185
5.0960002 14.962 -1.252 0.48701617 0.18577087 -0.51766604 0.73462486
5.204 15.357 -1.289 0.50458646 0.069149643 -0.56204224 0.75847256
5.1810002 15.446 -1.296 0.50335449 0.045572989 -0.57657892 0.76673716
5.277 15.897 -1.339 0.49751422 0.013066366 -0.60338414 0.78215313
5.348 16.278999 -1.374 0.49005634 -0.032011248 -0.61488682 0.78693438
5.3060002 16.326 -1.377 0.48398495 -0.032392271 -0.63724196 0.80085456
5.5450001 17.240999 -1.464 0.48319396 -0.042279132 -0.63098371 0.79586709
5.6059999 17.618 -1.498 0.48623493 0.13448501 -0.62231922 0.80111909
10.277 14.165 -1.5190001 -0.0067272102 0.43765369 -0.79987693 0.91180539
10.231 14.196 -1.5190001 -0.0095203938 0.44684315 -0.78728443 0.90530449
10.162 14.147 -1.511 0.066998862 0.44403663 -0.78585398 0.90510982
10.057 14.093 -1.5 0.063572951 0.45088023 -0.7763055 0.89999151
10.047 14.174 -1.506 0.052696791 0.45970663 -0.76517814 0.89420623
9.9980001 14.199 -1.505 0.050031241 0.46425501 -0.75841916 0.89063764
9.8870001 14.135 -1.494 0.047888406 0.46664223 -0.75439739 0.88834888
9.8409996 14.165 -1.494 0.043065436 0.47114059 -0.74755239 0.88468224
9.8240004 14.235 -1.499 0.035181619 0.47603333 -0.74024725 0.88080162
9.6780005 14.118 -1.4809999 0.031268742 0.47906426 -0.7342881 0.87730229
9.724 14.233 -1.493 0.029280914 0.48322207 -0.72729003 0.87367713
9.6379995 14.203 -1.4859999 0.018457474 0.48760197 -0.71907544 0.86900282
9.5240002 14.129 -1.473 0.011570437 0.49341172 -0.70643252 0.86176324
9.5050001 14.197 -1.478 0.0066991723 0.49644104 -0.70013857 0.85830802
9.4379997 14.193 -1.474 0.0056145159 0.49729693 -0.69811225 0.85714436
9.3030005 14.085 -1.4579999 -0.0033675069 0.48249704 -0.72816062 0.87351739
9.2659998 14.126 -1.459 5.3326599e-05 0.48917705 -0.71516526 0.86646152
9.25 14.15 -1.46 0.0038490053 0.4980503 -0.69592834 0.85579509
9.1929998 14.159 -1.4579999 -0.0014143921 0.49187082 -0.70960361 0.86340964
9.0939999 14.104 -1.448 -0.0045065852 0.48257428 -0.72798914 0.87342227
9.0679998 14.161 -1.451 -0.0027993321 0.4901917 -0.71302557 0.8652752
8.9639997 14.096 -1.441 -0.0033309571 0.48601606 -0.72123671 0.86971551
8.9429998 14.161 -1.4450001 -0.0064630425 0.49041 -0.71239054 0.8648954
8.9169998 14.219 -1.448 -0.0078730546 0.4949185 -0.70289505 0.85969049
8.8269997 14.123 -1.436 -0.0028315829 0.49402267 -0.70488667 0.86077386
8.8059998 14.19 -1.4400001 -0.0036782045 0.49708819 -0.69834042 0.85719866
8.7480001 14.195 -1.438 -0.004084588 0.50127709 -0.688227 0.85144103
8.6999998 14.218 -1.437 -0.002668947 0.50334513 -0.68324804 0.84864092
8.6379995 14.216 -1.434 -0.0020527095 0.50687313 -0.67419732 0.84348482
8.5419998 14.158 -1.424 0.0037664808 0.51187533 -0.66009009 0.83531404
8.5229998 14.227 -1.429 0.0020817635 0.51442826 -0.65286052 0.83118451
8.4919996 14.225 -1.427 0.0027181837 0.51448035 -0.6527096 0.83109999
8.3260002 14.148 -1.4119999 0.012355005 0.51905942 -0.63710046 0.82187122
8.3629999 14.315 -1.428 0.0070430925 0.52045852 -0.63369691 0.82006001
8.3620005 14.417 -1.437 0.0051928139 0.52150697 -0.63078344 0.81846452
8.5579996 14.865 -1.485 0.009811366 0.498173 -0.7004739 0.85961401
8.3339996 14.58 -1.449 0.0082213525 0.5234828 -0.62516922 0.81543756
8.3570004 14.782 -1.4680001 0.016567407 0.52060354 -0.63778377 0.82345045
7.9320002 14.131 -1.391 0.011058556 0.51554155 -0.64803439 0.82816303
7.882 14.145 -1.39 0.011145355 0.5184359 -0.63847798 0.82252914
7.8870001 14.261 -1.4 0.023737261 0.53017932 -0.58939546 0.79312074
7.7129998 14.154 -1.383 0.013277876 0.51872569 -0.63749075 0.82197756
7.6420002 14.182 -1.382 0.01414789 0.5202046 -0.63248348 0.81905335
7.5580001 14.132 -1.374 0.016891152 0.51949245 -0.63438243 0.82012117
7.5240002 14.177 -1.376 0.018642796 0.52129626 -0.6281451 0.8164947
7.4829998 14.207 -1.377 0.014797077 0.52191943 -0.6262154 0.81533098
7.4369998 14.227 -1.377 0.013882408 0.52310896 -0.62176061 0.8126635
7.4660001 14.394 -1.392 0.010991205 0.52937037 -0.59624648 0.79741061
7.4450002 14.463 -1.398 0.011391708 0.53321439 -0.57531029 0.78449303
7.4190001 14.469 -1.397 0.0089454819 0.53296298 -0.57690406 0.78546029
7.2680001 14.283 -1.374 0.0091591738 0.52634621 -0.60859221 0.80467921
7.1550002 14.171 -1.359 0.017906077 0.5260061 -0.6084953 0.80453062
7.1170001 14.207 -1.3609999 0.020637168 0.52630019 -0.60717046 0.80378711
7.0799999 14.244 -1.362 0.020432752 0.52772415 -0.60104322 0.800102
7.0250001 14.246 -1.36 0.021256149 0.5273971 -0.60249585 0.80099982
6.9380002 14.181 -1.35 0.027843421 0.52763987 -0.59949267 0.79910612
6.8899999 14.197 -1.35 0.028493889 0.52800441 -0.59778577 0.79809046
6.9320002 14.341 -1.364 0.020010773 0.52900815 -0.59588337 0.79707408
6.8579998 14.301 -1.358 0.028182676 0.52890414 -0.59454948 0.79625559
6.7989998 14.294 -1.355 0.028397033 0.52902448 -0.59369558 0.7957058
6.724 14.25 -1.347 0.030994607 0.52985412 -0.58807945 0.79217643
6.6389999 14.187 -1.3380001 0.035575271 0.53046465 -0.5823971 0.7885713
6.598 14.215 -1.339 0.036741748 0.53126973 -0.5775038 0.78556234
6.5170002 14.156 -1.33 0.044025317 0.53106308 -0.57482684 0.78383166
6.566 14.322 -1.347 0.040988639 0.53167951 -0.57447439 0.78382653
6.441 14.166 -1.3279999 0.049129508 0.53156918 -0.56861734 0.77993917
6.381 14.152 -1.325 0.050411046 0.53170234 -0.56656963 0.77862042
6.3499999 14.201 -1.3279999 0.05538585 0.53202194 -0.56128407 0.77534169
6.296 14.201 -1.326 0.059596017 0.53160518 -0.56111056 0.77524239
6.2360001 14.186 -1.322 0.056990575 0.52877724 -0.5815767 0.78808928
6.2119999 14.253 -1.327 0.062146235 0.53125042 -0.56220561 0.77599245
6.1919999 14.266 -1.327 0.061319254 0.53142989 -0.5616169 0.77562314
6.0970001 14.169 -1.3150001 0.058168456 0.52342737 -0.60771 0.80415869
6.1849999 14.501 -1.348 0.070356086 0.53143835 -0.55643409 0.77265489
6.1729999 14.599 -1.357 0.080023073 0.53009653 -0.55799252 0.77379692
