# .PCD v0.7 - Point Cloud Data file format
VERSION 0.7
FIELDS x y z normal_x normal_y normal_z curvature
SIZE 4 4 4 4 4 4 4
TYPE F F F F F F F
COUNT 1 1 1 1 1 1 1
WIDTH 408
HEIGHT 1
VIEWPOINT 0 0 0 1 0 0 0
POINTS 408
DATA ascii
31.153 13.341 0.31400001 0.013373413 0.53914785 -0.66583878 0.85685503
31.079 13.426 0.31400001 0.19353756 0.53015709 -0.59080619 0.81705284
30.098 13.397 0.31099999 0.24168853 0.47309637 -0.69360459 0.87368232
30.745001 13.041 0.155 0.13184707 0.54549938 -0.59411138 0.81726468
30.783001 13.171 0.155 0.15404324 0.54103047 -0.59229523 0.81685799
30.811001 13.298 0.154 0.17939603 0.52576911 -0.62547159 0.83655894
30.843 13.427 0.154 0.20918144 0.51716685 -0.6186657 0.83304608
30.465 13.376 0.155 0.20137495 0.51907074 -0.62184632 0.83467305
30.813999 13.587 0.154 0.23945317 0.50520915 -0.61573458 0.83168697
30.576 13.597 0.155 0.20517567 0.51931477 -0.62001866 0.83439082
30.544001 13.698 0.155 0.21001431 0.51501775 -0.62973416 0.84018713
30.177999 13.648 0.155 0.22151376 0.50275218 -0.65059644 0.85153025
30.006001 13.683 0.155 0.23153281 0.48260671 -0.68755037 0.87134504
30.247999 14.024 0.155 0.22154349 0.48601729 -0.69500625 0.87654322
30.701 13.135 -0.057 0.14378516 0.54747117 -0.5692845 0.80279744
30.705999 13.251 -0.057999998 0.17128453 0.53666425 -0.58972889 0.81555319
30.451 13.255 -0.056000002 0.18801126 0.5278042 -0.6044566 0.82419252
30.344 13.322 -0.055 0.19146615 0.52559489 -0.61006773 0.82770282
30.357 13.441 -0.056000002 0.19138984 0.52622604 -0.60998356 0.82802409
30.093 13.438 -0.054000001 0.19172183 0.51705748 -0.64095211 0.84553254
29.853001 13.387 -0.052000001 0.21763113 0.49680781 -0.66621661 0.85908431
29.827 13.489 -0.052000001 0.19824733 0.50219476 -0.67478621 0.86419791
29.83 13.603 -0.052999999 0.20371112 0.49741891 -0.68194431 0.86831552
29.794001 13.7 -0.052999999 0.19023681 0.49991673 -0.68935657 0.87253606
29.878 13.852 -0.054000001 0.19345941 0.49744269 -0.69400358 0.87550944
26.756001 13.444 -0.029999999 0.038395505 0.56122589 -0.56522268 0.79744929
26.475 13.722 -0.028999999 0.087374471 0.54046023 -0.64446813 0.84561855
25.723 14.111 -0.025 0.11307174 0.47336626 -0.77512729 0.9152503
30.764 13.223 -0.264 0.14270775 0.55265743 -0.52851415 0.77789646
30.860001 13.379 -0.266 0.1712417 0.54368734 -0.55021745 0.7922492
30.517 13.344 -0.26100001 0.17179373 0.54243165 -0.55549502 0.79518545
30.181 13.31 -0.257 0.17742443 0.53381431 -0.5944562 0.81842244
30.031 13.357 -0.255 0.17761238 0.53286642 -0.59939241 0.82144028
29.882999 13.403 -0.25400001 0.16925424 0.53032899 -0.62091529 0.83392543
30.052 13.593 -0.257 0.18545024 0.52838594 -0.61154461 0.8291986
30.440001 13.826 -0.26300001 0.1845648 0.53904957 -0.56859571 0.80494702
30.167 13.817 -0.25999999 0.18139808 0.53017837 -0.61534214 0.83225012
30.01 13.859 -0.25799999 0.17005098 0.52993262 -0.62971735 0.84041053
29.893 13.919 -0.257 0.17684169 0.52738208 -0.63207322 0.84197474
27.240999 13.365 -0.22 0.0028123464 0.56308115 -0.54623169 0.78449816
27.084 13.394 -0.21799999 0.012286019 0.56361669 -0.54431647 0.78364223
26.888 13.402 -0.21600001 0.030814817 0.56214863 -0.55751067 0.7923249
27.028 13.578 -0.21799999 0.017885912 0.56446075 -0.54765886 0.7866804
26.950001 13.645 -0.21799999 0.024672637 0.56500208 -0.54604787 0.78613257
26.518999 13.479 -0.211 0.073877983 0.55868447 -0.56426084 0.79748136
26.371 13.508 -0.20999999 0.085188158 0.55234486 -0.5937916 0.81543261
26.226999 13.538 -0.208 0.085839801 0.55422217 -0.58439529 0.80996817
26.1 13.576 -0.207 0.088001229 0.55397248 -0.58504015 0.81049472
25.862 13.556 -0.204 0.090989687 0.5542537 -0.57850856 0.80631781
25.566999 13.503 -0.2 0.11102977 0.5430963 -0.61223006 0.82589757
25.549999 13.598 -0.2 0.12463734 0.5368982 -0.62757087 0.83524805
25.556 13.652 -0.20100001 0.1256554 0.536304 -0.63032818 0.83709311
25.634001 13.798 -0.20299999 0.12342273 0.53959459 -0.62391376 0.83406466
25.055 13.587 -0.19400001 0.23646148 0.45473373 -0.72500396 0.88787812
25.031 13.676 -0.19400001 0.25048351 0.44989932 -0.72050136 0.88559222
24.962 13.74 -0.19400001 0.29331338 0.43035927 -0.70591176 0.87724185
24.837999 13.774 -0.193 0.30467397 0.43025005 -0.69042486 0.86869317
24.875 13.897 -0.19400001 0.31911722 0.42284891 -0.68432099 0.86540866
24.764 13.886 -0.192 0.33777949 0.40369573 -0.68889117 0.86696959
24.861 14.043 -0.19499999 0.34476686 0.39819992 -0.68919212 0.86741751
24.767 14.093 -0.19400001 0.38532957 0.33778656 -0.71067202 0.87614685
24.601 14.101 -0.192 0.45597178 0.30003735 -0.59211284 0.80531377
24.672001 14.245 -0.19400001 0.47496659 0.26395845 -0.58825278 0.80081749
24.596001 14.304 -0.193 0.49502578 0.21027844 -0.58677709 0.7959742
24.802 14.528 -0.197 0.50015545 0.21417166 -0.55101639 0.77436686
30.938 13.236 -0.5 0.12217569 0.55831218 -0.50936288 0.7655651
30.809999 13.296 -0.49900001 0.11898299 0.55893302 -0.51562965 0.76969928
30.584999 13.256 -0.49399999 0.1452539 0.55182612 -0.52992636 0.7787379
30.389999 13.285 -0.49000001 0.14404427 0.55020833 -0.55207831 0.79263383
30.212 13.321 -0.48699999 0.15000927 0.54679739 -0.5675385 0.80224067
30.066 13.369 -0.48500001 0.1588594 0.54207921 -0.58175725 0.81088078
29.982 13.445 -0.484 0.14884828 0.5423528 -0.5961442 0.81956714
29.763 13.459 -0.47999999 0.15530422 0.53295493 -0.62691438 0.8373661
29.635 13.514 -0.47799999 0.13947649 0.54157329 -0.61086679 0.82819897
29.740999 13.675 -0.48100001 0.14960811 0.53845429 -0.61664951 0.83220923
29.722 13.723 -0.48100001 0.15006286 0.54148775 -0.60503113 0.82570606
29.464001 13.717 -0.47600001 0.11369476 0.55089712 -0.59875631 0.82153714
29.205999 13.708 -0.47099999 0.094835833 0.55495727 -0.59319335 0.81783241
29.058001 13.75 -0.46900001 0.083097264 0.55657172 -0.59346181 0.81784725
28.908001 13.791 -0.46599999 0.085405029 0.55167866 -0.61463648 0.83031398
28.757999 13.831 -0.46399999 0.082319304 0.54852468 -0.62863487 0.83835411
27.681999 13.475 -0.44 -0.046593811 0.56192446 -0.51090819 0.76089239
27.614 13.55 -0.44 -0.04970438 0.56173909 -0.51568866 0.76417023
26.888 13.299 -0.42399999 0.025092179 0.56190819 -0.55359524 0.78920096
26.836 13.378 -0.42399999 0.031355623 0.56260502 -0.55087733 0.78801864
26.667999 13.4 -0.421 0.047691494 0.56249464 -0.54720032 0.78619516
26.357 13.347 -0.414 0.076048329 0.56032169 -0.53822571 0.78066039
26.288 13.416 -0.414 0.085655317 0.5574289 -0.55807036 0.79341435
26.208 13.428 -0.412 0.086273298 0.55714661 -0.56005615 0.79468125
26.125 13.489 -0.41100001 0.083474383 0.55956 -0.54436707 0.78511834
26.045 13.551 -0.41100001 0.086833268 0.55978656 -0.54173112 0.78381985
25.771999 13.513 -0.405 0.090247869 0.55619198 -0.56258881 0.7962414
25.6 13.525 -0.40200001 0.10420036 0.54965615 -0.58770096 0.81140125
25.43 13.538 -0.39899999 0.1327191 0.54398954 -0.5873006 0.81145608
25.382 13.615 -0.39899999 0.15828525 0.5341602 -0.60497826 0.82242328
25.198999 13.619 -0.396 0.19425385 0.51927942 -0.61619425 0.8289035
25.061001 13.596 -0.39300001 0.25117174 0.4799096 -0.65658379 0.85117728
25.004 13.667 -0.39199999 0.28069922 0.4736672 -0.62623614 0.83386111
24.975 13.753 -0.39300001 0.29955292 0.46653447 -0.61043435 0.82463109
24.74 13.725 -0.38800001 0.3591978 0.42429855 -0.58741754 0.80877173
24.541 13.716 -0.384 0.42513761 0.35829553 -0.54834151 0.7808944
24.613001 13.857 -0.38699999 0.40565842 0.38175988 -0.56179279 0.79114509
24.646 13.978 -0.389 0.41720188 0.37126848 -0.54561818 0.78076684
24.718 14.07 -0.391 0.40754366 0.38118815 -0.5615707 0.79168046
24.830999 14.238 -0.39500001 0.39901677 0.38255489 -0.59927285 0.81528556
24.733999 14.286 -0.39399999 0.46658769 0.29915285 -0.53097409 0.76754802
24.650999 14.342 -0.39300001 0.49019375 0.24520007 -0.53889978 0.76865202
24.589001 14.409 -0.39199999 0.49902344 0.20758976 -0.56989431 0.78542823
24.48 14.448 -0.391 0.51530212 0.13307816 -0.56595433 0.77688503
30.907 13.224 -0.67199999 0.12120612 0.55834079 -0.5124656 0.7675001
30.771 13.281 -0.66900003 0.12927955 0.55524838 -0.53775012 0.78370219
30.577 13.311 -0.66500002 0.14394709 0.5509848 -0.54580724 0.78880322
30.386999 13.342 -0.66100001 0.14544715 0.54937041 -0.55841321 0.79673588
30.195 13.371 -0.65600002 0.11849421 0.55189145 -0.5808199 0.80992395
30.15 13.464 -0.65600002 0.12608054 0.54880178 -0.59137803 0.81658298
30.129999 13.512 -0.65600002 0.13082497 0.550093 -0.57986999 0.80991769
29.958 13.548 -0.653 0.1363252 0.54118413 -0.61590403 0.83114535
29.528 13.465 -0.64200002 0.12723705 0.53726673 -0.63516974 0.84159696
29.457001 13.544 -0.64099997 0.1320733 0.53591853 -0.63728434 0.84307969
29.43 13.645 -0.64099997 0.12601598 0.53928483 -0.6321094 0.84039897
29.367001 13.728 -0.64099997 0.12396008 0.54309088 -0.62193918 0.83493841
29.275 13.797 -0.639 0.10181291 0.55088246 -0.60883182 0.8273533
28.702999 13.581 -0.62300003 0.0675385 0.55915725 -0.58273405 0.81043029
28.611 13.648 -0.62199998 0.035526298 0.56330073 -0.57005227 0.80220288
28.642 13.774 -0.62400001 0.061050516 0.5582692 -0.59505451 0.81821853
28.604 13.866 -0.62400001 0.049371276 0.55547088 -0.61282706 0.82857859
27.469 13.421 -0.59299999 -0.045897879 0.56002516 -0.5365085 0.7769016
27.159 13.376 -0.58499998 -0.015626255 0.56177825 -0.54598874 0.78354496
26.995001 13.401 -0.58099997 0.019329879 0.56304049 -0.54811585 0.7860148
26.827 13.37 -0.57700002 0.03504657 0.56302476 -0.54504186 0.78440791
26.601 13.361 -0.57200003 0.066242732 0.56131655 -0.54236937 0.78334469
26.531 13.43 -0.57099998 0.065739714 0.56337374 -0.51536494 0.76636332
26.209 13.371 -0.56300002 0.079830751 0.55991268 -0.5371781 0.78002274
26.139999 13.439 -0.56199998 0.082067706 0.55871063 -0.55069983 0.78877306
26.069 13.507 -0.56099999 0.086486898 0.55964673 -0.54008806 0.78254682
25.908001 13.526 -0.55699998 0.091852099 0.55951178 -0.53205574 0.77754331
25.695999 13.467 -0.55199999 0.091083638 0.55844229 -0.53533995 0.77893704
25.547001 13.491 -0.54900002 0.11904988 0.55269217 -0.5464142 0.78626329
25.386999 13.508 -0.54500002 0.14612347 0.54670888 -0.54457271 0.78536749
25.292999 13.56 -0.54400003 0.17833968 0.53654069 -0.55377889 0.79142404
25.162001 13.592 -0.54100001 0.21403067 0.52363646 -0.55247915 0.79071957
25.079 13.649 -0.54000002 0.24894744 0.50659132 -0.56161457 0.79625404
24.989 13.702 -0.53799999 0.30508009 0.47198069 -0.56972671 0.80026752
24.825001 13.663 -0.53399998 0.33954638 0.44929397 -0.54454035 0.78337795
24.753 13.724 -0.53299999 0.35616651 0.43621838 -0.53696656 0.77812219
24.726999 13.812 -0.53399998 0.36391354 0.42985749 -0.53555179 0.77719128
24.792999 13.951 -0.537 0.37305561 0.42271978 -0.52998233 0.77378535
24.492001 13.883 -0.52899998 0.43530506 0.34910583 -0.51603591 0.76003844
24.429001 13.949 -0.52899998 0.45941955 0.31038588 -0.52005023 0.76016968
24.415001 14.043 -0.52999997 0.47082528 0.29030028 -0.51228064 0.75391126
24.687 14.303 -0.53899997 0.46812278 0.29789615 -0.51686865 0.75831014
24.780001 14.409 -0.54299998 0.47979724 0.27426842 -0.52185112 0.7601034
24.586 14.4 -0.53799999 0.49565452 0.23361352 -0.52437991 0.75843453
30.968 13.194 -0.87300003 0.078072712 0.56090152 -0.55813313 0.79512161
30.889999 13.218 -0.87099999 0.080714561 0.55349874 -0.59943277 0.81987524
30.645 13.227 -0.86400002 0.11896935 0.54591662 -0.6055944 0.82396799
30.544001 13.298 -0.86199999 0.13703486 0.54124141 -0.60993272 0.82688498
30.35 13.327 -0.85699999 0.11486883 0.5450505 -0.61445212 0.82935297
30.065001 13.315 -0.84799999 0.11067453 0.54129273 -0.63043255 0.83826715
29.896999 13.353 -0.84399998 0.12236073 0.53905272 -0.63130558 0.83910471
29.700001 13.378 -0.838 0.15262134 0.52778816 -0.6442095 0.84667552
29.563999 13.372 -0.83399999 0.14378589 0.53113663 -0.64030588 0.84425831
29.521999 13.465 -0.83399999 0.13373461 0.53569067 -0.63504785 0.84150773
29.313 13.481 -0.82800001 0.12395568 0.54065055 -0.62529802 0.83586222
29.105 13.497 -0.82200003 0.11457936 0.54276973 -0.62421018 0.83508426
28.923 13.523 -0.81800002 0.10527069 0.54407024 -0.62616968 0.83617151
28.705 13.531 -0.81099999 0.074624702 0.55583662 -0.59372836 0.81672311
28.548 13.568 -0.80699998 0.030202739 0.56315774 -0.56751692 0.80008394
28.374001 13.539 -0.80199999 -0.014470931 0.56276774 -0.55726916 0.79212743
28.16 13.546 -0.796 -0.028653707 0.56183815 -0.55199993 0.78815424
27.426001 13.407 -0.773 -0.043438077 0.55786997 -0.55753791 0.78990775
27.374001 13.488 -0.77200001 -0.040210117 0.55974883 -0.54875177 0.78489751
26.9 13.36 -0.75700003 0.041553885 0.56404698 -0.52918339 0.77453911
26.736 13.384 -0.75300002 0.057174712 0.56397104 -0.5170089 0.76722258
26.606001 13.371 -0.74900001 0.065072022 0.5631842 -0.51673311 0.76708794
26.416 13.38 -0.74299997 0.071749985 0.56235075 -0.51440197 0.76550364
26.247999 13.398 -0.73900002 0.075850479 0.56157309 -0.51987547 0.76901764
26.113001 13.433 -0.736 0.083550647 0.56127566 -0.51111042 0.76370478
25.905001 13.43 -0.73000002 0.090118758 0.55910945 -0.53113103 0.77641803
25.773001 13.464 -0.72600001 0.093556605 0.55906069 -0.52257079 0.77096164
25.570999 13.461 -0.72100002 0.11893409 0.55484855 -0.51288337 0.76488668
25.539 13.547 -0.72100002 0.12890029 0.55316859 -0.51620698 0.76751572
25.4 13.524 -0.71700001 0.15013246 0.54786742 -0.51457608 0.76647699
25.172001 13.505 -0.70999998 0.19974855 0.53197986 -0.5090121 0.76288623
25.045 13.539 -0.70700002 0.24958846 0.51017177 -0.50592554 0.76061177
24.902 13.563 -0.70300001 0.30774522 0.4755576 -0.50834846 0.76110464
24.823 13.621 -0.70200002 0.34453765 0.44744456 -0.51559371 0.76468927
24.690001 13.65 -0.699 0.36739588 0.42732236 -0.50896245 0.75935954
24.576 13.687 -0.69599998 0.39691487 0.39723507 -0.49671665 0.74970961
24.497999 13.695 -0.69400001 0.41073915 0.3809205 -0.50142074 0.7518177
24.431 13.758 -0.69300002 0.44013339 0.34131321 -0.50772119 0.75365305
24.414 13.849 -0.69400001 0.45365268 0.32064009 -0.50216937 0.74885571
24.424 13.957 -0.69599998 0.45403749 0.3208805 -0.49910009 0.74713802
24.473 14.087 -0.699 0.46861142 0.29562423 -0.50131071 0.74719661
24.495001 14.202 -0.70200002 0.4746767 0.28439078 -0.50048262 0.74610919
24.584999 14.357 -0.70700002 0.49482685 0.23814693 -0.49666372 0.74043393
24.431 14.319 -0.70200002 0.50267446 0.21358663 -0.50066108 0.74092001
24.514999 14.472 -0.70700002 0.51559037 0.16317788 -0.50007719 0.73657155
30.915001 13.357 -1.094 0.087087259 0.5441128 -0.6358816 0.84142047
30.808001 13.368 -1.091 0.12335593 0.53201973 -0.6538955 0.85196304
30.577 13.382 -1.0829999 0.12248231 0.53336138 -0.65004957 0.84972978
30.752001 13.574 -1.092 0.10956208 0.54232639 -0.63277394 0.84055018
30.219999 13.452 -1.071 0.10816453 0.53252113 -0.66107702 0.85574591
29.955 13.447 -1.062 0.11182308 0.53555155 -0.65033859 0.84985888
29.860001 13.517 -1.0599999 0.11748604 0.53555316 -0.64826661 0.84904045
29.714001 13.564 -1.0549999 0.15126747 0.52447695 -0.65748167 0.85454082
29.542 13.541 -1.049 0.13970825 0.52940011 -0.65129185 0.85086071
29.250999 13.519 -1.038 0.11704578 0.53903359 -0.63574082 0.84167886
29.073999 13.548 -1.033 0.10646472 0.54100317 -0.63625526 0.84192628
28.931999 13.592 -1.028 0.10187809 0.54061854 -0.64056849 0.84437877
28.691 13.589 -1.02 0.091163859 0.54762018 -0.62176573 0.83354145
28.587 13.65 -1.017 0.048753336 0.55958873 -0.58768368 0.81295055
28.612 13.772 -1.02 0.048914 0.56042051 -0.58755904 0.81344289
28.290001 13.727 -1.008 -0.018239351 0.56293899 -0.55967331 0.79401964
27.938 13.61 -0.99400002 -0.061014049 0.54444319 -0.62011498 0.82745618
27.583 13.544 -0.98100001 -0.044345681 0.55316716 -0.59070098 0.81048638
27.128 13.426 -0.963 0.017179558 0.56415737 -0.53808534 0.77981055
26.941 13.439 -0.95700002 0.034538846 0.56520557 -0.52037483 0.76905155
26.827999 13.488 -0.954 0.050718833 0.56507981 -0.51550376 0.76657146
26.577999 13.467 -0.94499999 0.069490224 0.56318229 -0.51464224 0.76606774
26.399 13.48 -0.93900001 0.070860647 0.56279171 -0.51597804 0.76680446
26.209 13.435 -0.93099999 0.087591507 0.56082475 -0.50882715 0.76230025
26.072001 13.469 -0.92699999 0.085590735 0.56130672 -0.50266051 0.75832617
25.983999 13.526 -0.92500001 0.08477363 0.5617466 -0.50084639 0.75735921
25.990999 13.634 -0.92699999 0.084459074 0.56244504 -0.50100541 0.75794739
25.799999 13.637 -0.921 0.10537234 0.55908418 -0.49229851 0.75235385
25.403999 13.53 -0.90600002 0.15348965 0.5468455 -0.47440431 0.74003953
25.410999 13.636 -0.90799999 0.17045251 0.54315948 -0.48706624 0.74920613
25.146999 13.545 -0.89700001 0.2111904 0.52759755 -0.51056194 0.76395947
25.006001 13.57 -0.89300001 0.25149345 0.5052703 -0.55546153 0.79188669
24.927999 13.63 -0.89099997 0.30576354 0.47402686 -0.54875964 0.7869752
24.813 13.668 -0.88800001 0.33679259 0.44821993 -0.56547546 0.79629946
24.674 13.693 -0.884 0.38525823 0.39737317 -0.58795476 0.80747765
24.573 13.738 -0.88099998 0.3962875 0.38630325 -0.58380032 0.80442321
24.471001 13.782 -0.87900001 0.41576535 0.36295998 -0.58174276 0.80188864
24.811001 14.025 -0.89499998 0.39885136 0.39694935 -0.47141883 0.7340892
24.718 14.075 -0.89300001 0.4066574 0.38795149 -0.52070564 0.76616639
24.611 14.117 -0.88999999 0.42716131 0.35916573 -0.54223859 0.77813208
24.728001 14.391 -0.89899999 0.48949489 0.25004607 -0.4630042 0.71868014
24.611 14.531 -0.898 0.52284443 0.10014739 -0.46434051 0.70640492
30.815001 13.28 -1.289 0.13072638 0.50696576 -0.70938826 0.88166624
30.813999 13.394 -1.291 0.14046457 0.50465888 -0.71024698 0.8825314
30.778999 13.494 -1.291 0.11251551 0.52449888 -0.68118161 0.86704504
29.492001 12.986 -1.23 0.15368758 0.52414137 -0.64630115 0.84619695
29.48 13.092 -1.2309999 0.14451775 0.52644861 -0.64827752 0.84752423
29.944 13.41 -1.256 0.10780157 0.53250146 -0.66084707 0.85551029
29.909 13.507 -1.256 0.11316608 0.53491449 -0.65247363 0.85127074
29.674 13.514 -1.247 0.14909105 0.52638155 -0.65267402 0.85163903
29.408001 13.504 -1.2359999 0.13057204 0.53304929 -0.64596951 0.84762448
29.351999 13.591 -1.235 0.12143084 0.53712261 -0.64096469 0.84503365
29.164 13.56 -1.227 0.11434373 0.53805459 -0.64128113 0.84487796
28.950001 13.571 -1.2180001 0.10565883 0.54079288 -0.63739771 0.84255362
28.641001 13.536 -1.205 0.08698301 0.54637569 -0.62641215 0.83575392
28.474001 13.567 -1.199 0.030333772 0.55968297 -0.58697462 0.81160605
28.267 13.578 -1.191 -0.041770361 0.53866327 -0.64981705 0.84508288
28.061001 13.587 -1.183 -0.053959154 0.53211969 -0.66293329 0.8517884
27.822001 13.58 -1.173 -0.04778932 0.53268176 -0.66361457 0.85230154
27.285999 13.372 -1.148 0.021770602 0.55986929 -0.57185131 0.80058825
27.066 13.37 -1.1390001 0.043600824 0.562868 -0.54325169 0.78348184
26.941999 13.414 -1.135 0.051674634 0.5644052 -0.5187279 0.76831126
26.513 13.305 -1.1160001 0.074237168 0.56210637 -0.49906674 0.75534254
26.447001 13.376 -1.115 0.071930781 0.56252599 -0.4999781 0.75603414
26.191 13.35 -1.104 0.084735185 0.56066942 -0.4969267 0.75396711
26.066999 13.391 -1.1 0.085249461 0.56087095 -0.49269217 0.75139153
25.927999 13.371 -1.094 0.083827913 0.56069839 -0.49159241 0.75038183
25.877001 13.448 -1.094 0.090768382 0.56020761 -0.49577355 0.75356674
25.882999 13.554 -1.096 0.098502822 0.55972177 -0.49129531 0.75124055
25.841999 13.637 -1.096 0.10429472 0.55912155 -0.48493135 0.74743074
25.469 13.543 -1.079 0.15572259 0.54596406 -0.46683329 0.73502356
25.211 13.508 -1.069 0.1589102 0.54397714 -0.53203434 0.77731854
25.125 13.563 -1.066 0.21239394 0.52434206 -0.54813617 0.78771758
24.976999 13.534 -1.0599999 0.24663086 0.50554067 -0.56810838 0.7994656
24.91 13.599 -1.059 0.29654104 0.4744792 -0.58122814 0.8067795
24.774 13.626 -1.054 0.3587223 0.42317659 -0.59050548 0.81022024
24.719 13.697 -1.053 0.3586283 0.42567611 -0.58192849 0.8052671
24.625 13.747 -1.051 0.39594802 0.38602719 -0.5864898 0.8060782
24.902 14.004 -1.067 0.35566857 0.43897712 -0.533768 0.77724469
24.790001 14.044 -1.064 0.38855949 0.40428159 -0.55244792 0.78715998
24.84 14.175 -1.068 0.40488255 0.39057344 -0.52550215 0.76982462
24.707001 14.15 -1.063 0.39613125 0.3967739 -0.55092049 0.78604257
24.664 14.229 -1.063 0.42280948 0.3647843 -0.5493409 0.78333318
24.524 14.251 -1.058 0.44940817 0.31972039 -0.57054877 0.79354566
24.535999 14.361 -1.061 0.45365438 0.3140958 -0.56770527 0.79167402
24.535 14.465 -1.063 0.47903693 0.26059815 -0.57641655 0.79350096
30.969 13.051 -1.484 0.12789796 0.46151882 -0.78399736 0.91869986
30.740999 13.068 -1.474 0.13331133 0.47271425 -0.76581526 0.90978223
30.569 13.109 -1.466 0.12208111 0.49612784 -0.73181719 0.89252621
30.225 13.074 -1.45 0.11478899 0.5036056 -0.7200321 0.88613844
30.105 13.134 -1.446 0.1221251 0.50280517 -0.7190482 0.88586557
29.566999 13.009 -1.418 0.16861148 0.51865125 -0.64946812 0.84807891
29.422001 13.056 -1.413 0.14903504 0.52730101 -0.64121294 0.84345233
29.490999 13.142 -1.418 0.15091608 0.52310789 -0.65408921 0.85102892
29.524 13.268 -1.4220001 0.15373065 0.52450955 -0.64967489 0.84901166
29.551001 13.392 -1.425 0.1483923 0.52457833 -0.65586877 0.85285789
29.434 13.451 -1.421 0.14389752 0.52923089 -0.64684463 0.8480565
29.336 13.518 -1.418 0.13329488 0.53207868 -0.64655477 0.84788465
29.27 13.599 -1.4170001 0.13033168 0.5357967 -0.6385057 0.84365517
28.952 13.562 -1.402 0.10920144 0.54025 -0.63684821 0.84224147
28.777 13.535 -1.393 0.10118248 0.54144925 -0.6367076 0.84190363
28.576 13.55 -1.3839999 0.040824525 0.54735321 -0.63625574 0.8402878
28.371 13.562 -1.375 -0.039145891 0.52118123 -0.69613016 0.87049377
28.164 13.572 -1.3660001 -0.032893956 0.5123201 -0.71633112 0.88129687
27.639999 13.426 -1.339 -0.011773078 0.52242291 -0.69687003 0.87102938
27.32 13.376 -1.324 0.035646826 0.54500091 -0.63714814 0.83919871
27.353001 13.499 -1.3279999 0.03835959 0.54917753 -0.6252557 0.83307391
26.910999 13.333 -1.304 0.048704378 0.5637843 -0.52344131 0.77085388
26.662001 13.314 -1.293 0.069039762 0.56277174 -0.49478999 0.75252616
26.601 13.388 -1.2920001 0.076041311 0.56242323 -0.492387 0.75136352
26.371 13.376 -1.281 0.079063341 0.56152648 -0.48738363 0.74773377
26.24 13.413 -1.276 0.089141287 0.56040055 -0.48949388 0.74939924
26.159 13.476 -1.274 0.090359882 0.56058145 -0.48533925 0.74697435
26.131001 13.565 -1.275 0.090691157 0.56109285 -0.4847115 0.74699086
25.892 13.544 -1.2640001 0.10466772 0.55789948 -0.46651486 0.73474026
25.66 13.474 -1.252 0.12326443 0.55341274 -0.46552664 0.73360401
26.093 13.912 -1.281 0.088764712 0.56355262 -0.48807636 0.75079244
25.302999 13.592 -1.239 0.16492641 0.54169035 -0.54447025 0.78554249
25.076 13.572 -1.228 0.22507255 0.50877535 -0.6044783 0.82152539
25.030001 13.649 -1.228 0.24907731 0.50362968 -0.57664222 0.80510783
24.870001 13.663 -1.221 0.31576997 0.45951539 -0.58907127 0.8110919
24.843 13.699 -1.221 0.34942627 0.43384242 -0.58367217 0.80684024
24.837999 13.798 -1.223 0.35364276 0.4310385 -0.58233869 0.8062107
25.101999 14.152 -1.243 0.33774081 0.44140676 -0.38410026 0.67560476
24.775999 14.071 -1.227 0.37732029 0.41405627 -0.56379783 0.79478377
24.719999 14.142 -1.226 0.40626743 0.37969306 -0.57493263 0.79985476
24.577999 14.164 -1.221 0.43239158 0.34263122 -0.58136708 0.80146509
24.584 14.218 -1.222 0.4316144 0.34678662 -0.57243145 0.79638541
24.556 14.305 -1.223 0.44060063 0.3287656 -0.58823544 0.80513149
24.33 14.276 -1.2130001 0.4474138 0.30848676 -0.6079123 0.81541431
30.573 12.608 -1.6670001 -0.073818997 -0.19636971 -0.079912543 0.22449124
30.561001 12.715 -1.669 0.14469123 0.4017379 -0.8444072 0.94623065
30.521 12.811 -1.669 0.13819806 0.42064756 -0.82782608 0.93879658
30.462 12.899 -1.6670001 0.12245774 0.42524242 -0.82814264 0.93896073
30.393999 12.927 -1.665 0.10716727 0.43604264 -0.820355 0.93520069
30.261999 12.983 -1.659 0.091680385 0.43959394 -0.82010931 0.93500131
30.131001 13.039 -1.653 0.097408652 0.44814008 -0.80922997 0.93014574
29.969 13.081 -1.646 0.12140498 0.45821425 -0.78997111 0.92127836
29.802999 13.121 -1.638 0.16234776 0.48729286 -0.72707736 0.89019811
29.695999 13.185 -1.6339999 0.17433544 0.50395304 -0.68562925 0.86859024
29.573999 13.242 -1.6289999 0.16664414 0.51533067 -0.66433835 0.85713559
29.506001 13.268 -1.626 0.15912083 0.51826823 -0.66280067 0.85628623
29.365999 13.316 -1.62 0.15621975 0.52707672 -0.64020979 0.84385014
29.384001 13.435 -1.624 0.15807447 0.53026879 -0.63024855 0.83868098
29.204 13.464 -1.615 0.13383338 0.53529024 -0.63477921 0.84106582
29.033001 13.496 -1.607 0.12167718 0.54147464 -0.62252259 0.83398712
28.858 13.525 -1.599 0.13728043 0.54899395 -0.57267416 0.80510616
28.677 13.55 -1.59 0.10745478 0.55575883 -0.56747651 0.80152607
28.504 13.579 -1.582 -0.01936123 0.53897721 -0.65726161 0.85021412
28.226999 13.501 -1.566 0.058774322 -0.29931647 -0.15666449 0.34291184
27.499001 13.26 -1.523 0.046524473 0.4789483 -0.77509648 0.91232151
27.378 13.308 -1.518 0.052238926 0.51627219 -0.70933253 0.87887341
27.296 13.375 -1.516 0.053627685 0.54022878 -0.64993685 0.84684175
26.898001 13.285 -1.493 0.076376796 0.5585593 -0.55402172 0.79041886
26.745001 13.314 -1.4859999 0.068569303 0.56211478 -0.52207571 0.77021933
26.555 13.324 -1.477 0.081626333 0.56130415 -0.49760625 0.75454438
26.496 13.347 -1.475 0.077421978 0.56177706 -0.49665675 0.75382727
26.271 13.337 -1.4630001 0.090280682 0.55980802 -0.49598214 0.75334841
26.135 13.371 -1.457 0.093753435 0.55952162 -0.49168161 0.7507363
25.936001 13.373 -1.447 0.10077959 0.55787069 -0.47470158 0.73940367
25.839001 13.426 -1.443 0.10169435 0.55709785 -0.46110311 0.73028475
25.726 13.47 -1.439 0.12089828 0.55342209 -0.45899507 0.72908771
25.525 13.467 -1.429 0.092978299 0.54244924 -0.62235254 0.8307941
25.533001 13.523 -1.431 0.11608207 0.55249065 -0.55189788 0.78950125
25.856001 13.797 -1.454 0.11326059 0.55749536 -0.46199721 0.73285085
25.528999 13.727 -1.436 0.16523172 0.54460883 -0.46888244 0.73739475
25.198999 13.652 -1.418 0.196367 0.4991262 -0.67294472 0.86054724
25.052999 13.675 -1.411 0.26282609 0.47909567 -0.64112836 0.84241068
25.014999 13.756 -1.411 0.27357736 0.48362234 -0.60778868 0.82349396
24.818001 13.75 -1.401 0.34749874 0.42915788 -0.60796642 0.82131302
24.851 13.87 -1.406 0.35698465 0.42662907 -0.58951735 0.81054372
24.806999 13.897 -1.405 0.3664273 0.41676468 -0.59318125 0.81229657
24.686001 13.932 -1.4 0.38197502 0.39934245 -0.59836686 0.81450731
24.761 14.076 -1.4069999 0.3757787 0.40994781 -0.58794993 0.80929106
24.563999 14.067 -1.398 0.43442324 0.32757857 -0.61126614 0.81833827
24.599001 14.189 -1.403 0.42134088 0.35029781 -0.60541475 0.81655604
24.573 14.278 -1.404 0.42545858 0.3453286 -0.604707 0.81604987
24.563 14.375 -1.406 0.41237059 0.35699075 -0.62181282 0.82712942
24.594 14.445 -1.41 0.4340882 0.25913298 -0.7092396 0.87097836
27.674 13.174 -1.693 0.022306783 -0.21934092 -0.083831578 0.23587234
27.629 13.26 -1.693 0.015013006 -0.26725453 -0.12191954 0.2941339
27.559999 13.279 -1.6900001 0.012135474 -0.27920771 -0.13304135 0.30952257
27.386999 13.302 -1.681 0.068160728 0.47965166 -0.77145708 0.9109652
27.209 13.321 -1.671 0.099575266 0.52916509 -0.66583323 0.85630882
27.063 13.355 -1.664 0.082908273 0.54319417 -0.63012302 0.83605546
26.882999 13.372 -1.655 0.066117935 0.55777037 -0.57047224 0.80057353
26.697001 13.384 -1.645 0.072814971 0.56231093 -0.51813102 0.76808548
26.606001 13.443 -1.641 0.08180321 0.56159127 -0.51719117 0.76783019
26.468 13.425 -1.633 0.078224823 0.56158644 -0.51690054 0.76725787
26.330999 13.46 -1.627 0.091748461 0.56029499 -0.50655705 0.76088655
26.069 13.429 -1.6109999 0.10097683 0.55867368 -0.49579602 0.75374156
25.802 13.394 -1.596 0.11667998 0.55444545 -0.46611425 0.73368013
25.747 13.468 -1.595 0.116767 0.55461907 -0.4643268 0.73269111
25.691999 13.543 -1.594 0.12964059 0.55158168 -0.45342663 0.72570288
25.502001 13.545 -1.5829999 0.10508569 0.52186996 -0.67978758 0.86342484
25.462999 13.575 -1.582 0.12287327 0.50748652 -0.70489407 0.87722069
25.295 13.588 -1.573 0.16057897 0.41670334 -0.82274085 0.93612492
25.236 13.659 -1.572 0.17304417 0.42116421 -0.81268668 0.93154883
25.101 13.687 -1.566 0.24432588 0.38843104 -0.80641991 0.92783988
24.865 13.66 -1.552 0.31137443 0.37934667 -0.75655186 0.90179193
24.801001 13.727 -1.551 0.33151469 0.39817321 -0.7057305 0.87549949
25.042 13.963 -1.571 0.25858361 0.39542446 -0.78983372 0.92036045
24.726 13.94 -1.553 0.37413779 0.38757718 -0.64992684 0.84415644
24.694 14.024 -1.554 0.38589007 0.38250053 -0.6334182 0.83452767
24.636 14.094 -1.553 0.39710113 0.3520726 -0.66671276 0.85214454
24.565001 14.156 -1.551 0.41271409 0.32467207 -0.67579067 0.85582584
24.639999 14.302 -1.5599999 0.38517892 0.31989244 -0.73227572 0.88708609
25.146 14.703 -1.599 0.51528651 0.092117533 -0.39819589 0.65769732
24.823 14.618 -1.579 -0.2980181 0.027301922 -0.11509106 0.32063395
24.558001 14.514 -1.562 0.3697491 0.15043241 -0.84717232 0.93650693
