# .PCD v0.7 - Point Cloud Data file format
VERSION 0.7
FIELDS x y z normal_x normal_y normal_z curvature
SIZE 4 4 4 4 4 4 4
TYPE F F F F F F F
COUNT 1 1 1 1 1 1 1
WIDTH 665
HEIGHT 1
VIEWPOINT 0 0 0 1 0 0 0
POINTS 665
DATA ascii
0.14399999 20.24 0.66900003 0.046046074 0.55883819 -0.51155508 0.75901842
0.081 20.35 0.67199999 0.052294929 0.55912918 -0.49880928 0.75111312
0.017000001 20.344999 0.67199999 0.055216681 0.55869019 -0.48956865 0.74489003
-0.046999998 20.264999 0.67000002 0.058683243 0.55776721 -0.48806638 0.74347615
-0.078000002 20.202999 0.66799998 0.057971623 0.55757326 -0.48842755 0.74351197
-0.142 20.222 0.66900003 0.060604766 0.55694449 -0.47549978 0.73481983
-0.206 20.285999 0.67000002 0.063376896 0.5558694 -0.45875615 0.72350854
-0.26899999 20.240999 0.66900003 0.063771166 0.55469561 -0.44865713 0.71627313
-0.333 20.25 0.67000002 0.06555137 0.55350894 -0.43947038 0.70979106
-0.39899999 20.365 0.67199999 0.063302413 0.55113709 -0.41652939 0.69372618
-0.46200001 20.313 0.671 0.061242349 0.55044037 -0.41318655 0.69098359
-0.49599999 20.419001 0.67299998 0.057751924 0.54872942 -0.39949197 0.68119973
-0.56099999 20.452999 0.67400002 0.058431827 0.54676276 -0.3902505 0.67428428
-0.62199998 20.323 0.671 0.062792465 0.5447585 -0.38600993 0.67060298
-0.68599999 20.334999 0.67199999 0.060108133 0.54401445 -0.38154593 0.66718966
-0.75199997 20.377001 0.67299998 0.057619926 0.5437777 -0.37923738 0.66545868
-0.81999999 20.474001 0.67500001 0.054282058 0.54340428 -0.37534884 0.66266245
-0.88099998 20.408001 0.67400002 0.054440379 0.54443085 -0.3808459 0.66664255
-0.94300002 20.361 0.67299998 0.054111626 0.54515266 -0.38471591 0.66942203
-0.97600001 20.381001 0.67299998 0.053036869 0.54509813 -0.3840203 0.66889197
-1.04 20.370001 0.67299998 0.051366862 0.54660773 -0.39059055 0.67378002
-1.104 20.363001 0.67299998 0.050689846 0.54852182 -0.40026942 0.68092674
-1.168 20.363001 0.67299998 0.048099898 0.54986793 -0.40682209 0.6856913
-1.2309999 20.341 0.67199999 0.054685503 0.54996306 -0.41185695 0.68925756
-1.314 20.641001 0.67900002 0.061182112 0.55093074 -0.41635713 0.69326848
-1.372 20.528999 0.67699999 0.067383468 0.55037713 -0.41940188 0.69523627
-1.433 20.481001 0.676 0.07131435 0.54992825 -0.42159578 0.69659877
-1.469 20.524 0.67699999 0.076768778 0.54890293 -0.41833788 0.69440222
-1.531 20.490999 0.676 0.083632492 0.54788047 -0.41973543 0.69523036
-1.601 20.558001 0.67799997 0.093346089 0.54595077 -0.41673005 0.69313753
-1.656 20.440001 0.67500001 0.095818155 0.54558617 -0.42053869 0.6954841
-1.721 20.441999 0.676 0.097544506 0.54479271 -0.41776446 0.69342709
-1.79 20.495001 0.67699999 0.10262468 0.54322016 -0.41278088 0.6899333
-1.859 20.539 0.67799997 0.10540958 0.54261416 -0.4120644 0.68944788
-1.891 20.534 0.67799997 0.10599353 0.54193652 -0.40914616 0.68726295
-1.977 20.749001 0.68300003 0.10703848 0.53836155 -0.38917506 0.67286521
-2.049 20.812 0.685 0.10507481 0.53737777 -0.38278273 0.66808546
-2.1140001 20.797001 0.68400002 0.10127583 0.53599143 -0.37441093 0.66160953
-2.1530001 20.546 0.67900002 0.10181181 0.53806037 -0.38702777 0.67057073
-2.214 20.504999 0.67799997 0.10061466 0.53670889 -0.38106203 0.66587389
-2.2820001 20.525999 0.67900002 0.10204817 0.53585809 -0.37874928 0.66408485
-2.335 20.705 0.68300003 0.10170419 0.53292495 -0.36513504 0.65396971
-2.3889999 20.605 0.68099999 0.099604726 0.53336096 -0.36684847 0.65496016
-2.451 20.575001 0.68000001 0.093645342 0.53303921 -0.36225584 0.65125227
-2.533 20.705999 0.68300003 0.091514669 0.53382087 -0.36230528 0.65161705
-2.596 20.68 0.68300003 0.093027465 0.53308368 -0.36134976 0.65069652
-2.6819999 20.839001 0.68699998 0.085813805 0.53667855 -0.36995852 0.65746266
-2.727 20.673 0.68300003 0.080973379 0.54034424 -0.38327274 0.66740286
-2.803 20.747999 0.685 0.07872162 0.54270178 -0.39242619 0.67432976
-2.8269999 20.681999 0.68400002 0.078425556 0.54399079 -0.39931002 0.67935634
-2.895 20.697001 0.68400002 0.07789357 0.54480749 -0.40347791 0.68240529
-2.964 20.712999 0.685 0.077884562 0.54642648 -0.41318288 0.68946934
-3.0280001 20.698 0.685 0.073799819 0.54814249 -0.4216502 0.69548219
-3.095 20.695999 0.685 0.069918439 0.54995239 -0.43178678 0.70269197
-3.1760001 20.795 0.68699998 0.069783188 0.5511058 -0.44202143 0.7099086
-3.2360001 20.752001 0.68699998 0.070280701 0.55157745 -0.44887683 0.71461004
-3.289 20.875 0.69 0.067607455 0.55279511 -0.45820218 0.72118127
-3.339 20.766001 0.68699998 0.066734038 0.55340415 -0.47050661 0.72944224
-3.4159999 20.826 0.68900001 0.067897797 0.55371803 -0.48172456 0.73707008
-3.5179999 21.030001 0.69400001 0.068190314 0.55391896 -0.49004656 0.74271244
-3.5599999 20.882999 0.69099998 0.070938863 0.55334216 -0.49907377 0.74852818
-3.6210001 20.846001 0.69 0.074962988 0.552522 -0.50836033 0.75453979
-3.6860001 20.830999 0.69 0.079102114 0.55139065 -0.5188058 0.76121497
-3.744 20.966999 0.69300002 0.08300136 0.55058831 -0.52128184 0.76273948
-3.8 20.9 0.69199997 0.088046864 0.54928404 -0.52792692 0.76692373
-3.888 21.007999 0.69499999 0.094315536 0.54718375 -0.54009199 0.77459979
-3.9319999 20.877001 0.69199997 0.095186129 0.54645973 -0.54465294 0.77738369
-3.993 20.844999 0.69199997 0.099961661 0.54472947 -0.5514977 0.78158319
-4.0619998 20.846001 0.69199997 0.10408144 0.54361653 -0.55327678 0.78260279
-4.1399999 20.898001 0.69300002 0.11297758 0.54169285 -0.5521391 0.78169858
-4.2420001 21.065001 0.69800001 0.12082472 0.53983521 -0.55139339 0.7810604
-4.257 20.971001 0.69599998 0.11982522 0.53993058 -0.55175418 0.78122711
-4.3000002 20.848 0.69300002 0.12207935 0.53866261 -0.55644894 0.78402567
-4.4299998 21.136999 0.69999999 0.1358234 0.53511047 -0.55388743 0.78203744
-4.4899998 21.094 0.699 0.13583538 0.53466111 -0.55634838 0.78347772
-4.5609999 21.103001 0.69999999 0.14456655 0.53172022 -0.55762178 0.78394383
-4.632 21.110001 0.70099998 0.14722356 0.53084058 -0.55701274 0.783409
-4.6849999 21.035 0.699 0.14738142 0.53026998 -0.56002104 0.78519499
-4.756 21.197001 0.70300001 0.15623975 0.52825832 -0.55385911 0.78117067
-4.835 21.235001 0.704 0.16106433 0.52639472 -0.55614859 0.78251797
-4.908 21.249001 0.70499998 0.16802488 0.52411479 -0.55484754 0.78152698
-4.9759998 21.237 0.70499998 0.16924264 0.52331078 -0.55694371 0.78274101
-5.0170002 21.114 0.70300001 0.16857761 0.52290159 -0.56066525 0.78497773
-5.1259999 21.273001 0.70700002 0.16645341 0.52486277 -0.54966426 0.77802217
-5.2030001 21.299999 0.708 0.15929644 0.52744931 -0.54597265 0.77567017
-5.2270002 21.111 0.704 0.17356037 0.5216555 -0.55286527 0.77968431
3.283 19.973 0.51599997 0.0088711977 0.55987048 -0.55218607 0.78641152
3.2609999 20.035999 0.51700002 0.012020705 0.56042147 -0.55114263 0.7861138
3.1760001 19.908001 0.514 0.034492999 0.55942684 -0.54610366 0.78254545
3.1210001 19.966999 0.51499999 0.041794971 0.55950123 -0.54379988 0.7813493
3.063 20.01 0.51599997 0.051379863 0.55910963 -0.54243124 0.78068882
2.9990001 20.007999 0.51499999 0.06021034 0.55834776 -0.5408476 0.77967536
2.937 20.025 0.51599997 0.065604754 0.55803978 -0.53818744 0.77804762
2.8740001 20.034 0.51599997 0.06982924 0.55787975 -0.53343517 0.77502197
2.8440001 20.051001 0.51599997 0.069855072 0.55796093 -0.53332603 0.77500761
2.779 20.048 0.51599997 0.078098275 0.5569756 -0.53041917 0.7730884
2.7160001 20.052 0.51599997 0.081659243 0.55658048 -0.5278821 0.77143347
2.655 20.073 0.51599997 0.08443509 0.55639029 -0.52491492 0.76956815
2.602 20.16 0.51700002 0.086374708 0.55677676 -0.52216703 0.76819229
2.5409999 20.190001 0.51700002 0.087481372 0.5567975 -0.51913464 0.76627487
2.4790001 20.205999 0.51700002 0.088874534 0.55672652 -0.51679564 0.76480114
2.415 20.209999 0.51700002 0.08734189 0.55694818 -0.51533324 0.76379853
2.3840001 20.216999 0.51700002 0.085985638 0.55717635 -0.5148716 0.76349974
2.3210001 20.231001 0.51700002 0.084623687 0.55741298 -0.51393133 0.76288646
2.257 20.233999 0.51700002 0.083583966 0.55747634 -0.51420861 0.76300502
2.1930001 20.240999 0.51700002 0.080157474 0.55790091 -0.514543 0.76317304
2.1259999 20.216 0.51700002 0.078088306 0.55796641 -0.51474613 0.76314342
2.0610001 20.209 0.51700002 0.077225156 0.55795592 -0.51497096 0.76319963
1.993 20.167 0.51599997 0.076536752 0.55758429 -0.51473522 0.76269943
1.961 20.164 0.51599997 0.075898752 0.55760026 -0.51476341 0.7626664
1.899 20.184 0.51599997 0.074435659 0.55781394 -0.51467055 0.7626158
1.835 20.191999 0.51599997 0.072264969 0.55806315 -0.51413924 0.76223081
1.772 20.200001 0.51599997 0.072007917 0.55807704 -0.51391619 0.76206625
1.709 20.209 0.51599997 0.06991265 0.55826026 -0.51467955 0.76252037
1.646 20.223 0.51599997 0.069312975 0.55829346 -0.51530391 0.7629115
1.581 20.208 0.51599997 0.072022632 0.55786252 -0.51294613 0.76125658
1.548 20.198 0.51599997 0.070227914 0.55798483 -0.51259577 0.76094252
1.488 20.243 0.51599997 0.068221375 0.55838603 -0.51371282 0.76180702
1.424 20.239 0.51599997 0.066566899 0.55838865 -0.51461375 0.76227051
1.36 20.242001 0.51599997 0.064347714 0.55853504 -0.51509494 0.76251215
1.296 20.24 0.51599997 0.060960747 0.55873579 -0.51676899 0.76351297
1.234 20.274 0.51700002 0.054515906 0.55944753 -0.51814073 0.76447588
1.012 20.308001 0.51700002 0.033944175 0.56044495 -0.52576679 0.76920837
0.949 20.325001 0.51700002 0.028296601 0.56067848 -0.52616727 0.76942378
0.88499999 20.323999 0.51700002 0.022470769 0.56082666 -0.5252983 0.76874554
0.82200003 20.344999 0.51700002 0.016457086 0.5609405 -0.5258857 0.7690779
0.75599998 20.301001 0.51700002 0.016104639 0.56043625 -0.52727085 0.76965106
0.69400001 20.336 0.51700002 0.019071624 0.56092811 -0.52090156 0.76573002
0.66299999 20.361 0.51800001 0.018768562 0.56111497 -0.51861179 0.76430392
0.59899998 20.379 0.51800001 0.023715895 0.56123376 -0.51179063 0.75991803
0.53500003 20.389999 0.51800001 0.027008586 0.56123865 -0.50636065 0.75638574
0.472 20.403999 0.51800001 0.033818271 0.56099111 -0.50161928 0.75331044
0.40700001 20.399 0.51800001 0.03953078 0.56058431 -0.49690825 0.75015676
0.34299999 20.403 0.51800001 0.046182573 0.56003934 -0.49206641 0.7469312
0.27700001 20.226 0.51499999 0.044830427 0.55913693 -0.49338073 0.74703974
0.245 20.209999 0.51499999 0.047232453 0.55882871 -0.49199754 0.74604422
0.182 20.311001 0.51700002 0.055414986 0.5583781 -0.48274654 0.74020344
0.118 20.235001 0.51599997 0.05633913 0.55787522 -0.48549709 0.74169153
0.054000001 20.202999 0.51499999 0.057925355 0.55747133 -0.48334154 0.74010044
-0.0089999996 20.212999 0.51499999 0.060854375 0.5569483 -0.47703254 0.73583609
-0.072999999 20.433001 0.51899999 0.070925124 0.55586398 -0.46105924 0.72566575
-0.13699999 20.253 0.51599997 0.068898752 0.55528456 -0.46263292 0.72602838
-0.20200001 20.458 0.51899999 0.07246314 0.55373406 -0.44065911 0.71137387
-0.234 20.426001 0.51800001 0.072930634 0.552939 -0.43580437 0.70780355
-0.29699999 20.375 0.51800001 0.071514979 0.55215043 -0.42999059 0.70347452
-0.36199999 20.417999 0.51800001 0.072363935 0.54976255 -0.41445217 0.69227594
-0.42699999 20.473 0.51899999 0.069436967 0.54859328 -0.40491557 0.68537045
-0.48899999 20.364 0.51800001 0.072378151 0.54754788 -0.40383852 0.68420231
-0.55199999 20.334 0.51700002 0.068997219 0.54598594 -0.39521861 0.67753893
-0.616 20.323999 0.51700002 0.062729426 0.54547918 -0.38992825 0.67344379
-0.67900002 20.302 0.51700002 0.062594451 0.54529756 -0.38996294 0.6733042
-0.71100003 20.301001 0.51700002 0.06455604 0.54414594 -0.38606566 0.67030513
-0.77700001 20.351 0.51800001 0.060055349 0.54491127 -0.3861779 0.67057312
-0.83899999 20.313999 0.51700002 0.055615354 0.54464477 -0.38434374 0.66891783
-0.90200001 20.292999 0.51700002 0.054391142 0.54444981 -0.3837747 0.6683315
-0.972 20.41 0.51899999 0.05318908 0.54503304 -0.38373968 0.66868997
-1.046 20.617001 0.52200001 0.04848114 0.54646748 -0.38525474 0.67037183
-1.097 20.34 0.51800001 0.04865218 0.54686266 -0.3921355 0.6746822
-1.127 20.308001 0.51700002 0.046628382 0.54712552 -0.39389846 0.67577845
-1.199 20.448 0.51899999 0.051192913 0.54785752 -0.39720762 0.6786328
-1.257 20.343 0.51800001 0.054410782 0.54760331 -0.39951342 0.68003011
-1.323 20.362 0.51800001 0.05677323 0.54788387 -0.40233368 0.68210876
-1.393 20.450001 0.51999998 0.065954506 0.54748368 -0.40448111 0.6838811
-1.473 20.674999 0.523 0.079223767 0.54582703 -0.40137631 0.68213379
-1.536 20.638 0.523 0.087650284 0.544523 -0.40219456 0.68260407
-1.553 20.431999 0.51899999 0.086379312 0.54458469 -0.40552914 0.68446165
-1.612 20.368 0.51899999 0.091037273 0.5439254 -0.40768278 0.68581915
-1.689 20.521999 0.52100003 0.095280156 0.54318506 -0.40439534 0.68385953
-1.771 20.722 0.52399999 0.10201582 0.54094434 -0.39691445 0.67865241
-1.83 20.65 0.523 0.10445455 0.54116869 -0.40172613 0.68202507
-1.881 20.485001 0.52100003 0.106984 0.54043806 -0.40376467 0.68304086
-1.954 20.579 0.52200001 0.11194073 0.53855211 -0.39816082 0.67904425
-2.0220001 20.6 0.523 0.1120859 0.53753275 -0.39343104 0.67549443
-2.0439999 20.493999 0.52100003 0.11328157 0.53657025 -0.39182037 0.67399073
-2.102 20.426001 0.51999998 0.10919297 0.53659803 -0.38972074 0.67211813
-2.168 20.434999 0.51999998 0.10717496 0.53633553 -0.38674629 0.66986191
-2.256 20.65 0.52399999 0.10634935 0.53297323 -0.369697 0.65730244
-2.312 20.559999 0.52200001 0.10471825 0.53271198 -0.36874628 0.65629399
-2.365 20.455 0.52100003 0.10249522 0.53239042 -0.36738831 0.65491909
-2.45 20.622 0.52399999 0.094799906 0.53300798 -0.36265153 0.65161389
-2.49 20.68 0.52499998 0.092928477 0.53376418 -0.36353055 0.65245259
-2.562 20.732 0.52499998 0.08868634 0.53568447 -0.36806744 0.6559701
-2.6289999 20.739 0.52600002 0.082719058 0.53830642 -0.37488964 0.6611796
-2.7049999 20.813999 0.52700001 0.077509061 0.540474 -0.3805443 0.66553265
-2.763 20.754 0.52600002 0.070251867 0.54258531 -0.38646868 0.66984487
-2.8099999 20.605 0.52399999 0.07005582 0.54304892 -0.39098802 0.67281616
-2.905 20.822001 0.528 0.066757262 0.54654813 -0.40412727 0.68300086
-2.9059999 20.584999 0.52399999 0.067608222 0.54655313 -0.4079231 0.68534112
-2.9979999 20.771999 0.52700001 0.065573663 0.54858875 -0.41723576 0.69234037
-3.0409999 20.606001 0.52499998 0.063707069 0.54952627 -0.42423671 0.69714743
-3.1329999 20.780001 0.52700001 0.060365714 0.5518595 -0.43875062 0.70759809
-3.207 20.827999 0.528 0.058249991 0.55330926 -0.45180306 0.71670789
-3.2920001 20.941999 0.52999997 0.054199338 0.55469257 -0.46370327 0.72501183
-3.362 20.961 0.53100002 0.055788416 0.55470508 -0.46720409 0.72738558
-3.388 20.700001 0.52700001 0.056454249 0.55478632 -0.48006937 0.73582709
-3.4189999 20.687 0.52700001 0.059898626 0.55447382 -0.4835256 0.7381233
-3.51 20.832001 0.52899998 0.061105333 0.55436087 -0.48622015 0.73990536
-3.5869999 20.892 0.52999997 0.063114151 0.55413556 -0.49651888 0.74671322
-3.6600001 20.92 0.53100002 0.066291317 0.55361587 -0.50303525 0.75095242
-3.717 20.858999 0.52999997 0.073112004 0.55238992 -0.51176041 0.75655711
-3.7880001 20.875999 0.52999997 0.073750235 0.55201304 -0.5157811 0.75907028
-3.8699999 20.955 0.53200001 0.079246089 0.55059844 -0.52730352 0.76647741
-3.8940001 20.902 0.53100002 0.08281447 0.5497995 -0.5301258 0.76822597
-3.97 20.941999 0.53200001 0.095937334 0.54708946 -0.53554809 0.77157152
-4 20.745001 0.52899998 0.095018163 0.54677284 -0.53824735 0.77311003
-4.0669999 20.742001 0.52899998 0.10279523 0.54483551 -0.54181564 0.77522689
-4.1420002 20.778999 0.52999997 0.10971387 0.54329628 -0.54253453 0.77559763
-4.2090001 20.773001 0.52999997 0.11492866 0.54177457 -0.54482973 0.77689618
-4.289 20.834 0.53100002 0.12022091 0.53993177 -0.54921776 0.77949953
-4.3899999 20.990999 0.53399998 0.12768187 0.53803825 -0.54750693 0.77817202
-4.441 21.07 0.53500003 0.13219512 0.53672957 -0.54761541 0.77809817
-4.4699998 20.879999 0.53299999 0.12640949 0.53771275 -0.55013818 0.77959371
-4.5809999 21.079 0.53600001 0.13813557 0.53422236 -0.55155343 0.78018343
-4.6500001 21.073999 0.53600001 0.14396954 0.5321154 -0.55284429 0.78071177
-4.7059999 21.017 0.53500003 0.14701943 0.53072131 -0.5554387 0.78217131
-4.8140001 21.184999 0.53799999 0.15592769 0.52806354 -0.55501193 0.78179461
-4.888 21.205 0.53899997 0.16140632 0.52629119 -0.55532527 0.78193384
-4.9190001 21.188 0.53899997 0.16185673 0.52574778 -0.55751354 0.78321749
-4.967 21.091999 0.537 0.16475648 0.52451873 -0.55801511 0.78335524
-5.0679998 21.221001 0.54000002 0.16671965 0.52319396 -0.56238848 0.78600776
-5.1440001 21.245001 0.54000002 0.16118841 0.52579755 -0.55568194 0.78181022
-5.1810002 21.108999 0.53799999 0.17390531 0.52011263 -0.56344938 0.7862795
3.2850001 19.989 0.412 0.014651304 0.56048501 -0.54620045 0.78274709
3.2520001 19.986 0.412 0.022780927 0.56053132 -0.54370356 0.78123486
3.1860001 19.975 0.412 0.031996559 0.56036305 -0.54065812 0.77932131
3.108 19.886 0.41100001 0.048021205 0.55881172 -0.54125345 0.77944332
3.0650001 20.025999 0.412 0.052518353 0.55954194 -0.53637606 0.77688134
3.0020001 20.031 0.412 0.060348976 0.55893874 -0.53425753 0.77555507
2.9389999 20.041 0.412 0.066892184 0.55834085 -0.53252536 0.77446908
2.8740001 20.040001 0.412 0.071920417 0.55777514 -0.5305872 0.77318072
2.846 20.066 0.412 0.072129235 0.55786407 -0.53063303 0.77329582
2.7820001 20.066999 0.412 0.078365557 0.55722344 -0.52627605 0.77045804
2.7179999 20.072001 0.412 0.081277087 0.55691093 -0.52367616 0.76876038
2.658 20.106001 0.412 0.084142722 0.5567835 -0.52047729 0.76680148
2.5899999 20.070999 0.412 0.086948186 0.55606526 -0.51932377 0.76581055
2.5250001 20.069 0.412 0.090750918 0.55549055 -0.5157699 0.76342916
2.4630001 20.086 0.412 0.090089001 0.5556531 -0.51532608 0.76316929
2.4000001 20.094 0.412 0.088348612 0.55592966 -0.51408505 0.76232982
2.369 20.1 0.412 0.087238327 0.55611372 -0.51353592 0.76196593
2.3050001 20.103001 0.412 0.086203389 0.55623043 -0.5123902 0.76116163
2.244 20.125999 0.412 0.084719688 0.55650002 -0.51265621 0.76137114
2.1800001 20.127001 0.412 0.081882119 0.55682516 -0.51293123 0.76148367
2.1170001 20.134001 0.412 0.078181311 0.55728513 -0.51331276 0.76168829
2.052 20.129 0.412 0.077418253 0.55728179 -0.51298851 0.76138937
1.9910001 20.153 0.412 0.076481476 0.55747277 -0.51252896 0.76112497
1.961 20.177999 0.412 0.076734155 0.5575617 -0.51198083 0.76084656
1.899 20.194 0.412 0.075286791 0.55775744 -0.51211959 0.76093888
1.835 20.195999 0.412 0.07320863 0.5579443 -0.51177812 0.76064324
1.773 20.212999 0.412 0.072145812 0.5580709 -0.51230562 0.76098961
1.71 20.226999 0.412 0.069871143 0.55834454 -0.51290822 0.76138389
1.647 20.242001 0.412 0.069615088 0.55839103 -0.51232612 0.76100254
1.5829999 20.243 0.412 0.070666298 0.55824864 -0.50948864 0.75908756
1.551 20.247999 0.412 0.071391836 0.55814397 -0.50988108 0.75934196
1.487 20.242001 0.412 0.068286285 0.55835074 -0.51018852 0.75941485
1.424 20.257 0.412 0.066732518 0.55851591 -0.51081604 0.75981992
1.36 20.247 0.412 0.063290909 0.55872124 -0.51118433 0.75992405
1.298 20.278999 0.41299999 0.057873465 0.55932647 -0.51378328 0.76168805
1.234 20.278999 0.41299999 0.05022499 0.55983007 -0.51597041 0.76299262
1.17 20.283001 0.41299999 0.045674205 0.5599975 -0.51865393 0.76464713
0.94800001 20.315001 0.41299999 0.027669495 0.56066328 -0.5225476 0.76691914
0.884 20.309999 0.41299999 0.024011444 0.56067383 -0.5224331 0.76672554
0.82099998 20.337999 0.41299999 0.020296425 0.56105387 -0.51956254 0.76494354
0.75700003 20.344999 0.41299999 0.019361146 0.5611819 -0.51587361 0.76251262
0.69300002 20.343 0.41299999 0.023343019 0.56113201 -0.51146734 0.75961363
0.66100001 20.351999 0.41299999 0.026549526 0.56118381 -0.50647008 0.75640208
0.59799999 20.360001 0.41299999 0.030644186 0.56105524 -0.50129467 0.75300622
0.53399998 20.364 0.41299999 0.035696205 0.56077272 -0.49553707 0.74919772
0.47099999 20.416 0.414 0.039836038 0.56061876 -0.49118313 0.74641889
0.403 20.216999 0.412 0.040193003 0.55950475 -0.49214575 0.74623621
0.34099999 20.334 0.41299999 0.048000086 0.55935442 -0.48569089 0.74234563
0.27700001 20.329 0.41299999 0.053715594 0.55862212 -0.48048255 0.73878783
0.24600001 20.358999 0.41299999 0.056124732 0.55849844 -0.47846884 0.73756558
0.18000001 20.190001 0.41100001 0.055786621 0.5575521 -0.47860849 0.73691422
0.117 20.223 0.412 0.061405424 0.55683589 -0.47399351 0.73383015
0.054000001 20.173 0.41100001 0.059762642 0.5567258 -0.47311601 0.73304427
-0.0099999998 20.183001 0.41100001 0.063158855 0.55613053 -0.46892843 0.73018086
-0.072999999 20.209 0.41100001 0.06885051 0.55510443 -0.46261719 0.72587603
-0.13699999 20.247 0.412 0.071298994 0.55438972 -0.45582664 0.72125548
-0.20100001 20.25 0.412 0.07877855 0.55248463 -0.44669393 0.71482921
-0.236 20.488001 0.414 0.081953406 0.55121154 -0.43102059 0.7045064
-0.30000001 20.481001 0.414 0.080456622 0.54976445 -0.42022467 0.69663692
-0.36500001 20.534 0.41499999 0.077761918 0.54846489 -0.40916288 0.68867618
-0.43000001 20.538 0.41499999 0.076580256 0.54692507 -0.40029788 0.68207771
-0.49399999 20.528999 0.41499999 0.07280945 0.54611486 -0.39432681 0.67752212
-0.55900002 20.528999 0.41499999 0.068215996 0.54569668 -0.38989031 0.6741311
-0.62199998 20.49 0.414 0.064195037 0.54490203 -0.38529965 0.67044389
-0.65499997 20.514999 0.41499999 0.066594861 0.54427671 -0.3836416 0.66921812
-0.71600002 20.416 0.414 0.06236824 0.54360729 -0.3806057 0.66652787
-0.78100002 20.427999 0.414 0.060320906 0.54345679 -0.3791866 0.66540694
-0.84600002 20.459 0.414 0.055897705 0.54391503 -0.37902501 0.66530299
-0.91000003 20.447001 0.414 0.051316608 0.54446107 -0.3799448 0.66590488
-0.97799999 20.507999 0.41499999 0.048096791 0.54542238 -0.38225967 0.66777343
-1.034 20.347 0.41299999 0.048281725 0.54508579 -0.38393342 0.66847181
-1.096 20.306999 0.41299999 0.043548349 0.54575098 -0.38664919 0.67025232
-1.1289999 20.337999 0.41299999 0.044880591 0.54625297 -0.3889823 0.67209655
-1.198 20.42 0.414 0.046856318 0.54736817 -0.39373156 0.67589349
-1.265 20.452 0.414 0.05319722 0.54792088 -0.39902174 0.67990118
-1.329 20.450001 0.414 0.056550968 0.5476957 -0.40013969 0.68064702
-1.3890001 20.378 0.414 0.060159534 0.54741895 -0.40219927 0.68194646
-1.461 20.490999 0.41499999 0.074699894 0.54600674 -0.40247107 0.68241221
-1.5420001 20.704 0.417 0.087450698 0.54443753 -0.40093744 0.68177027
-1.571 20.653 0.417 0.090916336 0.54412055 -0.40312451 0.68325865
-1.635 20.639999 0.41600001 0.094372414 0.54332322 -0.4026075 0.68278772
-1.696 20.589001 0.41600001 0.097789578 0.54270685 -0.4035745 0.68334901
-1.762 20.601999 0.41600001 0.10262141 0.54128784 -0.4011873 0.68152398
-1.827 20.598 0.41600001 0.1054815 0.53956681 -0.39598262 0.67754036
-1.9 20.676001 0.417 0.11251244 0.53746217 -0.39222252 0.674806
-1.9400001 20.417 0.41499999 0.10890857 0.53903908 -0.40083361 0.68050849
-1.982 20.511 0.41499999 0.11447825 0.53699791 -0.39482355 0.67628223
-2.043 20.469 0.41499999 0.11703366 0.53662825 -0.39726096 0.6778518
-2.1110001 20.504999 0.41600001 0.1139679 0.53550893 -0.38812301 0.67111695
-2.1900001 20.629 0.417 0.114791 0.53319609 -0.37791073 0.66354471
-2.25 20.58 0.41600001 0.11230272 0.53308642 -0.37607732 0.6619873
-2.309 20.525 0.41600001 0.10739441 0.53272521 -0.37143141 0.65824842
-2.402 20.757999 0.41800001 0.099164031 0.53461909 -0.36952549 0.65741932
-2.4489999 20.6 0.417 0.094364986 0.53451216 -0.36825705 0.65591252
-2.4920001 20.683001 0.41800001 0.09147694 0.53587282 -0.37073159 0.65800428
-2.5450001 20.582001 0.417 0.088134073 0.53639203 -0.37178782 0.65856677
-2.612 20.586 0.417 0.083539784 0.53797877 -0.37544739 0.66133261
-2.7079999 20.818001 0.419 0.072424456 0.54320109 -0.38943198 0.67228717
-2.7420001 20.580999 0.417 0.068258218 0.5429427 -0.38915783 0.67148328
-2.8139999 20.622 0.41800001 0.065415636 0.54507905 -0.39792681 0.67803848
-2.8840001 20.650999 0.41800001 0.060972977 0.5473761 -0.4072634 0.68498307
-2.938 20.798 0.41999999 0.056255314 0.54954368 -0.41534063 0.69113731
-2.994 20.728001 0.419 0.056716647 0.55102134 -0.42724302 0.69955552
-3.056 20.693001 0.419 0.05187339 0.55188638 -0.43183595 0.70267469
-3.1459999 20.847 0.41999999 0.044414319 0.55416435 -0.44585967 0.71264404
-3.2130001 20.849001 0.41999999 0.046127088 0.55454969 -0.45362738 0.71793514
-3.28 20.848 0.421 0.04514683 0.55551803 -0.46718791 0.72725725
-3.3380001 20.792999 0.41999999 0.04958792 0.55525714 -0.47240835 0.7307114
-3.3670001 20.766001 0.41999999 0.049867291 0.55530894 -0.47547889 0.73275846
-3.418 20.666 0.419 0.0540234 0.5550639 -0.48523864 0.73923677
-3.5020001 20.768 0.41999999 0.057468943 0.55478185 -0.49477893 0.74558151
-3.5799999 20.83 0.421 0.059860606 0.55444491 -0.50323725 0.75115925
-3.6789999 21.009001 0.42300001 0.063730508 0.55385047 -0.50569534 0.75268835
-3.7520001 21.039 0.42300001 0.064656466 0.55349308 -0.51136768 0.75632793
-3.783 20.832001 0.421 0.068792991 0.55266654 -0.51478368 0.75840294
-3.8610001 20.889 0.42199999 0.074016556 0.55160493 -0.52159369 0.76276237
-3.9089999 20.964001 0.42300001 0.082943618 0.55021757 -0.523094 0.76370567
-3.9360001 20.749001 0.421 0.083027042 0.54967248 -0.52740574 0.76628333
-4.0190001 20.829 0.42199999 0.095799491 0.54734856 -0.52973008 0.76771218
-4.1279998 21.035999 0.42399999 0.10877016 0.54416037 -0.53567576 0.77129108
-4.21 21.105 0.42500001 0.11617598 0.54217434 -0.53857756 0.77299136
-4.2069998 20.750999 0.421 0.11074485 0.542678 -0.54419142 0.77647161
-4.335 21.041 0.42399999 0.12386877 0.53966182 -0.54163599 0.77456307
-4.4250002 21.141001 0.426 0.1304445 0.53718328 -0.54542792 0.77657789
-4.461 21.145 0.426 0.13303046 0.53609091 -0.54802316 0.77808738
-4.5190001 21.09 0.42500001 0.13414825 0.53592598 -0.54611039 0.77681977
-4.572 21.018999 0.42500001 0.13511495 0.53560328 -0.54498261 0.77597231
-4.6370001 20.997 0.42500001 0.13743106 0.5346579 -0.54591328 0.77638113
-4.7290001 21.101 0.426 0.14755706 0.53165776 -0.54677081 0.77678275
-4.8200002 21.191999 0.42699999 0.15305038 0.52961498 -0.54917085 0.77814209
-4.8909998 21.198 0.42699999 0.16043776 0.52748924 -0.54707688 0.77670991
-4.934 21.229 0.42699999 0.163109 0.52598047 -0.55160004 0.77943736
-4.9899998 21.171 0.42699999 0.16454056 0.52490562 -0.55563021 0.78187239
-5.0650001 21.190001 0.42699999 0.17042385 0.5230996 -0.55251408 0.77971101
-5.151 21.252001 0.428 0.16953783 0.52292418 -0.55490535 0.78109711
-5.2270002 21.275999 0.42899999 0.17238693 0.52162069 -0.55634683 0.78187418
3.3139999 19.899 0.27000001 0.014756655 0.56069469 -0.53802532 0.77721781
3.256 19.931 0.27000001 0.027648984 0.5606485 -0.53602672 0.77615452
3.1900001 19.922001 0.27000001 0.03859384 0.56018859 -0.53399533 0.77488822
3.1070001 19.802999 0.27000001 0.05247052 0.55865151 -0.53138244 0.7727949
3.0999999 19.962 0.27000001 0.051880978 0.55961871 -0.53059381 0.77291304
3.0350001 19.958 0.27000001 0.061535385 0.55861855 -0.53030175 0.77269739
2.973 19.973 0.27000001 0.068049975 0.55800474 -0.52867967 0.77168798
2.9100001 19.978001 0.27000001 0.07275831 0.55749547 -0.52676022 0.77043581
2.8469999 19.986 0.27000001 0.07996732 0.55670708 -0.52312154 0.76809746
2.7839999 19.996 0.27000001 0.082514249 0.55636138 -0.521927 0.76730329
2.721 20.004999 0.27000001 0.085819378 0.55589277 -0.52065742 0.76646322
2.6900001 20.009001 0.27000001 0.085851826 0.55587804 -0.52019835 0.76614439
2.628 20.025999 0.27000001 0.086847179 0.55586463 -0.5169577 0.76405054
2.5650001 20.035999 0.27000001 0.091873564 0.55513889 -0.51409203 0.76217484
2.5020001 20.040001 0.27000001 0.090839967 0.55525881 -0.51345295 0.76170743
2.4400001 20.056999 0.27000001 0.089928858 0.55544788 -0.51279175 0.76129162
2.375 20.047001 0.27000001 0.089552797 0.55536568 -0.5124622 0.76096535
2.313 20.066 0.27000001 0.086782254 0.55586284 -0.51155114 0.76039416
2.283 20.076 0.27000001 0.086974338 0.55589688 -0.51025909 0.75957239
2.2190001 20.077 0.27000001 0.083863959 0.55627882 -0.51017666 0.75944686
2.1559999 20.084 0.27000001 0.081295349 0.55662543 -0.50955129 0.75900155
2.0929999 20.097 0.27000001 0.078445531 0.55698657 -0.51020789 0.75940758
2.0309999 20.108999 0.271 0.077977464 0.55706877 -0.5095582 0.75898331
1.9680001 20.117001 0.271 0.07688424 0.55720717 -0.50907409 0.7586484
1.905 20.131001 0.271 0.07548473 0.55737478 -0.50905228 0.75861639
1.842 20.136999 0.271 0.074278727 0.55746949 -0.50911343 0.75860792
1.811 20.143999 0.271 0.073722601 0.5575344 -0.50937915 0.75877976
1.747 20.146 0.271 0.072416179 0.55764276 -0.50849503 0.75814033
1.6849999 20.165001 0.271 0.071680747 0.55777138 -0.50744492 0.75746113
1.622 20.167999 0.271 0.071736358 0.55771542 -0.50595272 0.75642627
1.559 20.179001 0.271 0.070304476 0.55785167 -0.50588465 0.75634676
1.4960001 20.190001 0.271 0.067258604 0.55814815 -0.50600421 0.75636852
1.432 20.197001 0.271 0.063894138 0.5585013 -0.50562948 0.75608683
1.402 20.211 0.271 0.0630031 0.55862051 -0.50634772 0.75658065
1.339 20.223 0.271 0.056964144 0.55916941 -0.5076136 0.75735521
1.273 20.202999 0.271 0.048711788 0.55964625 -0.5095998 0.75846475
1.21 20.207001 0.271 0.045562491 0.55977547 -0.51076424 0.75914735
0.98900002 20.249001 0.271 0.029949272 0.5606063 -0.51000369 0.75847226
0.92699999 20.288 0.271 0.027667057 0.56083274 -0.50968361 0.75833774
0.86400002 20.292999 0.271 0.027651045 0.56086487 -0.50599545 0.75588715
0.80000001 20.295 0.271 0.027426247 0.56085879 -0.50195485 0.75317562
0.736 20.290001 0.271 0.028800447 0.56074226 -0.49685809 0.74975282
0.671 20.266001 0.271 0.031056795 0.56042939 -0.49298981 0.74705058
0.60799998 20.284 0.271 0.036262292 0.56011194 -0.48816302 0.74387062
0.54299998 20.256001 0.271 0.037653498 0.55976099 -0.48492971 0.74155712
0.50800002 20.122999 0.27000001 0.034897931 0.5593735 -0.48740399 0.74275112
0.44499999 20.120001 0.27000001 0.040320829 0.55892867 -0.48450762 0.74079329
0.37900001 19.997999 0.27000001 0.035960048 0.55843979 -0.48575363 0.74101597
0.31600001 19.966999 0.27000001 0.040527686 0.55799127 -0.48489445 0.74035084
0.257 20.275999 0.271 0.061849803 0.55666476 -0.4655239 0.72829497
0.191 20.082001 0.27000001 0.058041729 0.55636394 -0.47030252 0.73081744
0.12800001 20.089001 0.27000001 0.060869962 0.55589551 -0.46755591 0.72892624
0.097000003 20.091 0.27000001 0.062324662 0.55555272 -0.46456355 0.72687173
0.034000002 20.111 0.27000001 0.066937879 0.55469668 -0.45863792 0.7228539
-0.028999999 20.225 0.271 0.074555948 0.55328327 -0.44923007 0.71658123
-0.093000002 20.187 0.27000001 0.079215646 0.55196822 -0.4445267 0.71312553
-0.15700001 20.278999 0.271 0.0838774 0.55044127 -0.4348135 0.70645863
-0.22 20.254 0.271 0.086291134 0.54935527 -0.43070209 0.70337874
-0.28600001 20.395 0.271 0.088135734 0.54880553 -0.42441431 0.69934464
-0.35100001 20.454 0.271 0.091316096 0.54684383 -0.41448468 0.6922242
-0.38299999 20.472 0.271 0.089864463 0.545582 -0.40564376 0.68577123
-0.44800001 20.469999 0.271 0.087452851 0.54454529 -0.39867097 0.68052638
-0.51200002 20.487 0.271 0.077339113 0.54506934 -0.3937932 0.67687148
-0.57700002 20.493 0.271 0.074861616 0.54413509 -0.38798809 0.67247456
-0.64200002 20.513 0.271 0.071130425 0.54357195 -0.38352707 0.66904634
-0.70599997 20.493 0.271 0.06555678 0.54379207 -0.38217115 0.66787899
-0.77100003 20.513 0.27200001 0.061663758 0.54410005 -0.38156649 0.66741312
-0.801 20.458 0.271 0.061408825 0.54405254 -0.38227916 0.66775864
-0.86500001 20.455 0.271 0.054363679 0.54450572 -0.3813898 0.66700828
-0.921 20.257999 0.271 0.050074432 0.54348046 -0.3793413 0.66466403
-0.98299998 20.229 0.271 0.04500002 0.54480684 -0.38390297 0.66799778
-1.051 20.306 0.271 0.04201702 0.54693246 -0.39158857 0.67397493
-1.1160001 20.330999 0.271 0.041254286 0.54779851 -0.39560339 0.67696911
-1.177 20.275 0.271 0.039674148 0.54757857 -0.39565256 0.67672545
-1.209 20.271 0.271 0.040035516 0.54829711 -0.39973134 0.67971885
-1.272 20.264999 0.271 0.041121289 0.54860014 -0.40217549 0.68146771
-1.337 20.267 0.271 0.051818885 0.54819489 -0.40504616 0.683568
-1.406 20.347 0.271 0.063055307 0.54795349 -0.40833169 0.68626803
-1.471 20.365999 0.271 0.0714285 0.54692334 -0.40784025 0.68597436
-1.5319999 20.32 0.271 0.081321254 0.54560351 -0.41022491 0.6874451
-1.595 20.301001 0.271 0.088182405 0.54479957 -0.41264603 0.68910044
-1.682 20.587 0.27200001 0.099772669 0.54365152 -0.41101873 0.68880183
-1.6950001 20.343 0.271 0.096019275 0.54433727 -0.41694307 0.69236141
-1.783 20.615999 0.27200001 0.10571509 0.54216719 -0.40934324 0.68751931
-1.8380001 20.500999 0.27200001 0.10873518 0.54036027 -0.40576649 0.68444067
-1.911 20.591 0.27200001 0.1145599 0.53825945 -0.39972803 0.68016887
-1.983 20.664 0.27200001 0.11884747 0.53634137 -0.39459938 0.67638409
-2.052 20.702 0.27200001 0.11945595 0.53551537 -0.39116144 0.67383504
-2.1199999 20.723 0.27200001 0.11779222 0.53492272 -0.38674077 0.67051154
-2.155 20.74 0.273 0.11620773 0.53536749 -0.38697052 0.67072254
-2.22 20.735001 0.273 0.11571498 0.53564239 -0.38805845 0.67148501
-2.289 20.763 0.273 0.11249018 0.53514332 -0.38258162 0.66738373
-2.3559999 20.77 0.273 0.10483695 0.53569716 -0.37814194 0.66404337
-2.4230001 20.778 0.273 0.09718556 0.5371232 -0.37828606 0.66411346
-2.4890001 20.775 0.273 0.085675918 0.53933156 -0.38000172 0.66529709
-2.556 20.781 0.273 0.079399161 0.54129595 -0.38491121 0.66892612
-2.5639999 20.577999 0.27200001 0.080782637 0.53979558 -0.38119206 0.6657421
-2.6359999 20.634001 0.27200001 0.070151173 0.54314274 -0.38967535 0.67213994
-2.6989999 20.608999 0.27200001 0.061048925 0.54489702 -0.39378107 0.67505795
-2.777 20.702 0.273 0.059138063 0.54655272 -0.40052524 0.68017471
-2.859 20.816 0.273 0.049635418 0.55009758 -0.41424727 0.69041425
-2.9170001 20.754999 0.273 0.046061929 0.55108231 -0.41982681 0.69431114
-2.964 20.617001 0.27200001 0.047576327 0.55072021 -0.42141205 0.69508588
-3.03 20.615999 0.27200001 0.042049427 0.55161792 -0.42557943 0.69797444
-3.066 20.639 0.273 0.040577855 0.55264878 -0.43231165 0.70282328
-3.1329999 20.643 0.273 0.035194471 0.55395305 -0.44147864 0.70922917
-3.214 20.733999 0.273 0.035756487 0.5550077 -0.45223469 0.71681815
-3.273 20.686001 0.273 0.032816902 0.55540556 -0.45671201 0.71981812
-3.342 20.698999 0.273 0.035045683 0.55584592 -0.46664166 0.72659981
-3.3970001 20.631001 0.273 0.039695285 0.55576295 -0.47541994 0.73244268
-3.507 20.889 0.27399999 0.045392212 0.55596042 -0.49267659 0.74423295
-3.566 20.84 0.273 0.049726773 0.55540782 -0.4966248 0.74671733
-3.592 20.795 0.273 0.049869161 0.55536294 -0.4988119 0.74814987
-3.635 20.656 0.273 0.054434728 0.55474305 -0.50166959 0.74991691
-3.701 20.652 0.273 0.059086718 0.55407852 -0.50756133 0.75373256
-3.783 20.735001 0.273 0.065740503 0.55306983 -0.51057339 0.75557476
-3.8440001 20.701 0.273 0.071326852 0.55209219 -0.5152756 0.75855273
-3.914 20.712999 0.273 0.076223172 0.55119765 -0.5182808 0.76042342
-3.997 20.795 0.27399999 0.086426064 0.54943848 -0.52054143 0.76178437
-4.0229998 20.757 0.273 0.088455059 0.5489167 -0.52203268 0.7626611
-4.1009998 20.809 0.27399999 0.095684312 0.54716986 -0.52821982 0.7665289
-4.2129998 21.027 0.27399999 0.11078461 0.54373306 -0.53302634 0.76943874
-4.2259998 20.754999 0.27399999 0.10988975 0.5436011 -0.53325915 0.76937848
-4.3499999 21.025999 0.27399999 0.11939003 0.54100037 -0.53713995 0.77165711
-4.3800001 20.84 0.27399999 0.11786923 0.54115742 -0.53918439 0.77295816
-4.4970002 21.066999 0.27500001 0.13204846 0.53714138 -0.53844506 0.77193314
-4.533 21.073 0.27500001 0.13407083 0.53617579 -0.54278666 0.77464622
-4.6009998 21.069 0.27500001 0.13497806 0.53566819 -0.54221487 0.77405196
-4.6560001 21.004999 0.27500001 0.13542673 0.5353086 -0.54251564 0.77409232
-4.7210002 20.983 0.27500001 0.14304829 0.53307629 -0.54266989 0.77403086
-4.8189998 21.110001 0.27500001 0.15175945 0.53025907 -0.54548591 0.77573222
-4.8860002 21.097 0.27500001 0.1543238 0.52918702 -0.54721957 0.77672642
-4.9650002 21.138 0.27500001 0.15292425 0.52914107 -0.55022204 0.77853733
-5.013 21.044001 0.27500001 0.15959886 0.52697724 -0.54913872 0.77764398
-5.079 21.174999 0.27500001 0.16865715 0.52409792 -0.54808438 0.77686572
-5.1539998 21.194 0.27599999 0.16870335 0.52342397 -0.55209601 0.77925831
-5.283 21.434 0.27599999 0.17954683 0.5191012 -0.55148989 0.77835995
3.3010001 20.040001 0.175 0.026234146 0.56159872 -0.53231913 0.77423835
3.2349999 20.028999 0.175 0.036125101 0.56111246 -0.53061277 0.773112
3.1689999 20.018999 0.175 0.046944238 0.56037492 -0.52926892 0.77223665
3.089 19.917999 0.175 0.058308993 0.55893946 -0.52741438 0.77070045
3.0799999 20.07 0.175 0.060230054 0.55957842 -0.52687973 0.77094609
3.0150001 20.066999 0.175 0.068256751 0.55859321 -0.52684921 0.77087969
2.9549999 20.096001 0.175 0.073784254 0.55811691 -0.52525645 0.76995647
2.8889999 20.087999 0.175 0.077706166 0.55750489 -0.52404809 0.76907498
2.8269999 20.107 0.175 0.081127934 0.55716866 -0.52224368 0.76795644
2.7650001 20.118999 0.175 0.084355012 0.55675161 -0.52087438 0.76707125
2.701 20.122 0.175 0.086085849 0.55651456 -0.51841319 0.7654224
2.638 20.134001 0.175 0.0881145 0.55623239 -0.5168398 0.76438344
2.608 20.148001 0.175 0.089547582 0.5561437 -0.51502162 0.76325738
2.543 20.149 0.175 0.091220066 0.55582774 -0.51284581 0.76175874
2.4809999 20.164 0.175 0.091028854 0.55591816 -0.5121209 0.76131403
2.4170001 20.166 0.175 0.09010312 0.55595583 -0.51245517 0.76145631
2.3540001 20.181999 0.175 0.089214385 0.55613929 -0.51157904 0.76089633
2.29 20.183001 0.175 0.087707847 0.55629373 -0.51070672 0.76024783
2.227 20.191999 0.175 0.084104612 0.55685902 -0.50897139 0.75908989
2.194 20.184 0.175 0.082259744 0.55705303 -0.50856644 0.7587586
2.132 20.205999 0.175 0.080037884 0.55742192 -0.50847298 0.75872922
2.069 20.215 0.175 0.079163961 0.5574789 -0.50863326 0.7587868
2.007 20.233 0.175 0.078246914 0.55764997 -0.50857431 0.75877792
1.943 20.233 0.175 0.076463878 0.55777365 -0.50853151 0.75865835
1.88 20.253 0.175 0.075393699 0.5579586 -0.50873446 0.75882328
1.816 20.253 0.175 0.074237809 0.55801529 -0.50817633 0.75837684
1.785 20.257999 0.175 0.074170068 0.55803418 -0.50763947 0.75802451
1.721 20.264 0.175 0.072775327 0.55815923 -0.507155 0.75765705
1.658 20.277 0.175 0.072734609 0.55818659 -0.5050754 0.75628287
1.594 20.285999 0.175 0.071042739 0.55836856 -0.50491589 0.75614983
1.5319999 20.305 0.175 0.069521613 0.55860978 -0.50471812 0.75605458
1.467 20.294001 0.175 0.067805625 0.5586381 -0.50375563 0.75527734
1.405 20.32 0.175 0.061420128 0.55945289 -0.50384092 0.75539106
1.341 20.323999 0.175 0.057457902 0.55973864 -0.50455469 0.75576729
1.309 20.33 0.175 0.053853285 0.56011319 -0.50394839 0.75537473
1.245 20.326 0.175 0.049585909 0.56031638 -0.50443894 0.75556058
0.926 20.361 0.175 0.030632328 0.561297 -0.50112861 0.75307542
0.89499998 20.385 0.175 0.030812321 0.56142217 -0.49992171 0.75237358
0.83099997 20.388 0.175 0.032499269 0.56126314 -0.49800879 0.75105613
0.76800001 20.412001 0.175 0.035309199 0.56111526 -0.49343255 0.74804598
0.70200002 20.370001 0.175 0.039145939 0.56048614 -0.48779446 0.74405682
0.63599998 20.292999 0.175 0.039903238 0.55984378 -0.48472729 0.74160492
0.57300001 20.346001 0.175 0.045749541 0.55952001 -0.48053792 0.73896712
0.50800002 20.27 0.175 0.047542289 0.55876261 -0.47635719 0.73579353
0.442 20.200001 0.175 0.048663992 0.55818319 -0.47378445 0.73376316
0.41100001 20.219999 0.175 0.051726639 0.55784559 -0.47077003 0.73177302
0.34599999 20.129999 0.175 0.053487875 0.55718589 -0.46959043 0.73063827
0.28299999 20.127001 0.175 0.058799554 0.55641019 -0.46675202 0.72863376
0.219 20.113001 0.175 0.061882757 0.55576473 -0.46410364 0.72670221
0.15700001 20.238001 0.175 0.072984174 0.55428547 -0.45602733 0.72147071
0.093999997 20.360001 0.175 0.077856302 0.55356956 -0.4500258 0.71765178
0.029999999 20.388 0.175 0.07893005 0.55307269 -0.44551277 0.71456349
-0.0020000001 20.289 0.175 0.079528376 0.55214536 -0.44284916 0.71225321
-0.066 20.341999 0.175 0.08295273 0.5511626 -0.43729341 0.70843977
-0.131 20.525999 0.175 0.094136186 0.54898781 -0.42835975 0.7026673
-0.19599999 20.544001 0.175 0.096740983 0.54760808 -0.42219961 0.69820195
-0.26100001 20.547001 0.175 0.099395216 0.54600745 -0.41568458 0.69339544
-0.32499999 20.525999 0.175 0.1001476 0.54452479 -0.40900508 0.68834728
-0.38999999 20.573 0.175 0.094978921 0.5442856 -0.40188956 0.6832152
-0.42300001 20.59 0.175 0.092400432 0.54385602 -0.39715344 0.67974114
-0.48699999 20.583 0.175 0.082713343 0.54417241 -0.39159828 0.67551041
-0.55299997 20.611 0.175 0.076610215 0.54406017 -0.38652179 0.6717661
-0.61699998 20.597 0.175 0.074194409 0.54424065 -0.38667098 0.671727
-0.68300003 20.629 0.17399999 0.064792074 0.54523122 -0.38529268 0.67076486
-0.74800003 20.622999 0.17399999 0.059044823 0.54552436 -0.384213 0.66985279
-0.81300002 20.634001 0.17399999 0.049423911 0.54629874 -0.38362122 0.66936558
-0.87400001 20.546 0.175 0.046866551 0.54696375 -0.38794187 0.67220879
-0.90700001 20.565001 0.175 0.040642019 0.54814875 -0.39098853 0.67453009
-0.977 20.659 0.17399999 0.03826312 0.54939836 -0.39486289 0.67765725
-1.033 20.479 0.175 0.039815202 0.5489586 -0.39699268 0.67863393
-1.091 20.375 0.175 0.035878435 0.54918015 -0.39953527 0.68008423
-1.163 20.497999 0.175 0.04197919 0.55013806 -0.40474394 0.68427461
-1.229 20.525999 0.175 0.045877125 0.55002666 -0.40570572 0.68500447
-1.289 20.445999 0.175 0.049975768 0.54984969 -0.40862006 0.68687886
-1.323 20.48 0.175 0.054911364 0.54972231 -0.41024074 0.6881187
-1.402 20.688999 0.17399999 0.068213239 0.54917395 -0.41173813 0.68976325
-1.454 20.497 0.175 0.068520062 0.54830712 -0.41101959 0.68867469
-1.529 20.632 0.17399999 0.080365181 0.54708469 -0.41052482 0.68868774
-1.591 20.591 0.17399999 0.089976467 0.54583573 -0.41316733 0.69046336
-1.652 20.544001 0.175 0.09517622 0.54467732 -0.41359252 0.69050032
-1.726 20.649 0.17399999 0.10441472 0.54296535 -0.41181216 0.68942225
-1.76 20.667999 0.17399999 0.10876505 0.54195184 -0.41100413 0.68881494
-1.824 20.65 0.17399999 0.11434979 0.54030961 -0.40916121 0.68733054
-1.9 20.764 0.17399999 0.12030412 0.53783983 -0.40186855 0.6820873
-1.966 20.764 0.17399999 0.12069644 0.53740048 -0.40032685 0.68090272
-2.036 20.806999 0.17399999 0.120972 0.53645909 -0.39552963 0.67739666
-2.1040001 20.830999 0.17399999 0.11920226 0.53698617 -0.39560193 0.67754281
-2.1700001 20.826 0.17399999 0.11925098 0.53606617 -0.39174393 0.67457473
-2.2390001 20.851 0.17399999 0.11763196 0.53548133 -0.38748062 0.67135596
-2.2720001 20.855 0.17399999 0.11509163 0.53516638 -0.38379931 0.66854399
-2.3410001 20.878 0.17399999 0.10555124 0.53677678 -0.38305077 0.667831
-2.4059999 20.865999 0.17399999 0.096407413 0.53854924 -0.38344684 0.66810268
-2.4749999 20.886 0.17399999 0.084921002 0.54092431 -0.38575631 0.66978997
-2.5420001 20.888 0.17399999 0.075484917 0.54277688 -0.38803169 0.671471
-2.612 20.914 0.17399999 0.067889012 0.54547203 -0.39599442 0.67746603
-2.6789999 20.914 0.17399999 0.058719523 0.54665202 -0.39711529 0.67821604
-2.7460001 20.915001 0.17399999 0.050975978 0.54809368 -0.40165997 0.681422
-2.78 20.921 0.17399999 0.047381874 0.54908729 -0.40579724 0.68440723
-2.836 20.844 0.17399999 0.044810727 0.54983306 -0.41003913 0.68735468
-2.9030001 20.847 0.17399999 0.041552287 0.55105144 -0.41673264 0.69213462
-2.9860001 20.959 0.17399999 0.031033078 0.55351186 -0.42985624 0.701509
-3.0550001 20.971001 0.17399999 0.028786488 0.55444372 -0.43736035 0.70676768
-3.1229999 20.975 0.17399999 0.026934227 0.55527186 -0.44535622 0.71231627
-3.188 20.961 0.17399999 0.021116327 0.55629051 -0.45698902 0.72023886
-3.2279999 20.997999 0.17399999 0.018913245 0.556813 -0.46319279 0.72453153
-3.2869999 20.944 0.17399999 0.02126218 0.55670035 -0.46553132 0.72600746
-3.3329999 20.809 0.17399999 0.020787509 0.55675483 -0.47000593 0.72891265
-3.4159999 20.907 0.17399999 0.030277148 0.5567919 -0.47956121 0.73546785
-3.487 20.931999 0.17399999 0.035905894 0.55652207 -0.48712897 0.74047327
-3.5209999 20.732 0.17399999 0.036170319 0.55635166 -0.48941967 0.7418673
-3.5910001 20.747999 0.17399999 0.044674132 0.5557183 -0.49365851 0.74465925
-3.6700001 21.006001 0.17299999 0.054224685 0.55489993 -0.49646276 0.74654502
-3.6830001 20.701 0.17399999 0.052356187 0.55489337 -0.50084764 0.74933052
-3.7650001 20.784 0.17399999 0.062955178 0.55361962 -0.50136584 0.74955034
-3.855 20.902 0.17399999 0.06843432 0.55286241 -0.50431997 0.75145108
-3.9070001 20.816999 0.17399999 0.072055496 0.55216467 -0.50803208 0.75377345
-4.0180001 21.042 0.17299999 0.085313693 0.54996192 -0.51355284 0.75728005
-4.0939999 21.083 0.17299999 0.094571456 0.54806733 -0.51774043 0.75985307
-4.1100001 20.819 0.17399999 0.091707617 0.54818451 -0.52169275 0.76228595
-4.152 20.857 0.17399999 0.097260214 0.54709315 -0.52239406 0.76267034
-4.2810001 21.153999 0.17299999 0.11657012 0.54257345 -0.52579361 0.7644825
-4.3410001 21.108999 0.17299999 0.11878461 0.5417456 -0.52815038 0.7658596
-4.3800001 20.966 0.17299999 0.11844386 0.54173625 -0.52924132 0.76655298
-4.4390001 20.923 0.17299999 0.12482009 0.53997386 -0.52964526 0.76660025
-4.5359998 21.052999 0.17299999 0.13498704 0.53683269 -0.5300622 0.76640511
-4.6220002 21.129 0.17299999 0.13788742 0.53593713 -0.52994972 0.76621681
-4.6279998 20.997 0.17299999 0.13761364 0.53579473 -0.5294376 0.76571387
-4.7020001 21.018999 0.17299999 0.1419546 0.53450096 -0.52996665 0.76596802
-4.7690001 21.006001 0.17299999 0.14571372 0.53300583 -0.53278667 0.76758671
-4.8860002 21.215 0.17299999 0.15890917 0.52904373 -0.53425479 0.76848394
-4.928 21.093 0.17299999 0.16047791 0.52834767 -0.53441668 0.76844364
-5.0149999 21.164 0.17299999 0.16404909 0.52687871 -0.53592187 0.76923698
-5.1009998 21.228001 0.17299999 0.17008966 0.52407062 -0.54330665 0.77379751
-5.1479998 21.277 0.17299999 0.16658162 0.52520269 -0.5426845 0.7733652
-5.2189999 21.280001 0.17299999 0.17705457 0.52127755 -0.54430312 0.77417344
-5.3169999 21.386999 0.17200001 0.19393183 0.5142889 -0.54392105 0.77327406
3.329 19.938 0.046999998 0.019462718 0.5616461 -0.52416152 0.76848584
3.2690001 19.964001 0.046 0.033223711 0.56122094 -0.52470499 0.76901764
3.2030001 19.958 0.046999998 0.047093507 0.5601725 -0.52640325 0.77013725
3.1210001 19.841999 0.048 0.058367006 0.55881405 -0.52169722 0.76671237
3.0799999 19.992001 0.046 0.064305164 0.55879867 -0.52339756 0.76833332
3.016 19.995001 0.046999998 0.071313538 0.55799019 -0.52236676 0.76766253
2.9549999 20.018999 0.046 0.076886281 0.55731833 -0.52243644 0.7677598
2.9219999 20.011 0.046999998 0.081193179 0.55664688 -0.52189779 0.7673496
2.8599999 20.025999 0.046 0.084643602 0.55622023 -0.52044374 0.76642495
2.7950001 20.017 0.046999998 0.087455802 0.55572361 -0.51873076 0.7652182
2.7349999 20.048 0.046 0.090006389 0.55543715 -0.51730114 0.76433766
2.6700001 20.041 0.046999998 0.091635972 0.55514121 -0.51509392 0.76282412
2.6099999 20.070999 0.046 0.09290044 0.55503821 -0.51430821 0.76237184
2.5450001 20.066999 0.046 0.092146635 0.55506355 -0.51393914 0.76204985
2.516 20.087 0.046 0.091428444 0.55524933 -0.51398975 0.76213282
2.45 20.075001 0.046999998 0.090487137 0.55527937 -0.512793 0.76123571
2.3889999 20.101999 0.046 0.090575837 0.55535305 -0.51212007 0.76084685
2.325 20.096001 0.046 0.089282654 0.55546844 -0.51168215 0.76048356
2.2620001 20.111 0.046 0.088199452 0.55566955 -0.51079541 0.75990766
2.1989999 20.120001 0.046 0.08551494 0.55606914 -0.50969619 0.75915474
2.138 20.143 0.046 0.080292262 0.55690938 -0.5086019 0.75846606
2.073 20.136999 0.046 0.078665592 0.55703306 -0.50848424 0.75830752
2.043 20.15 0.046 0.078585856 0.55707502 -0.50829095 0.75820053
1.978 20.143 0.046 0.078482494 0.55700731 -0.50770575 0.75774783
1.916 20.165001 0.046 0.076601125 0.55727816 -0.50778282 0.75780606
1.852 20.163 0.046 0.075730748 0.55729216 -0.50780755 0.7577455
1.79 20.186001 0.046 0.076450028 0.5572629 -0.50552928 0.75627136
1.726 20.186001 0.046 0.075678542 0.55725884 -0.50567222 0.75628632
1.664 20.207001 0.046 0.073831432 0.55756229 -0.50532967 0.75609845
1.632 20.208 0.046 0.073820777 0.55753106 -0.50471652 0.75566471
1.5700001 20.223 0.046 0.072329879 0.55772901 -0.5027473 0.75435275
1.506 20.226 0.046 0.070170373 0.55789798 -0.50201964 0.75378889
1.444 20.246 0.046 0.064013988 0.55864477 -0.50274861 0.75427973
1.38 20.245001 0.046 0.058114015 0.55918193 -0.50216347 0.75381023
