# .PCD v0.7 - Point Cloud Data file format
VERSION 0.7
FIELDS x y z normal_x normal_y normal_z curvature
SIZE 4 4 4 4 4 4 4
TYPE F F F F F F F
COUNT 1 1 1 1 1 1 1
WIDTH 153
HEIGHT 1
VIEWPOINT 0 0 0 1 0 0 0
POINTS 153
DATA ascii
12.796 20.948999 1.039 0.45349294 0.13326672 -0.7359072 0.87462866
12.828 21.15 1.046 0.50746894 0.13229126 -0.594329 0.79262388
12.842 21.326 1.051 0.51473433 0.026643932 -0.50280946 0.72005463
12.87 21.524 1.057 0.51484156 0.025792934 -0.4957234 0.71517044
12.887 21.709 1.063 0.51533538 0.028536879 -0.48368081 0.70734155
12.914 21.910999 1.069 0.51525164 0.02771882 -0.48441577 0.70775086
12.936 22.107 1.075 0.51499462 0.025936015 -0.48174781 0.70567209
12.957 22.302999 1.081 0.51518226 0.027101345 -0.48146927 0.70566273
13.018 22.49 1.0880001 0.51603061 0.02720543 -0.48095605 0.70593655
13.044 22.700001 1.094 0.51653588 0.029452763 -0.47874933 0.7048955
13.076 22.922001 1.101 0.51725703 0.032155417 -0.47736087 0.70460075
13.102 23.136999 1.108 0.51797128 0.034752958 -0.47502759 0.70367122
13.128 23.354 1.115 0.5191555 0.038683698 -0.47572502 0.70521855
13.152 23.57 1.122 0.51997817 0.04024756 -0.47746274 0.707084
12.786 20.863001 0.88099998 0.4230324 0.14155744 -0.78193748 0.90023392
12.797 21.028999 0.88499999 0.49600381 0.11735255 -0.64064533 0.81866831
12.818 21.212999 0.88999999 0.51627272 0.08456897 -0.54829979 0.75784039
12.879 21.389 0.89499998 0.51437902 0.02342508 -0.49829465 0.71654177
12.9 21.577 0.89899999 0.5144186 0.023204625 -0.49665195 0.71542162
12.926 21.775 0.90399998 0.51513124 0.02717112 -0.48925132 0.71096087
12.95 21.973 0.90899998 0.51501209 0.026389979 -0.4829576 0.70652807
12.972 22.167999 0.91399997 0.5151071 0.026863337 -0.48110035 0.70534706
12.996 22.370001 0.91900003 0.51544482 0.02691371 -0.48278773 0.70674723
13.025 22.582001 0.92500001 0.51623929 0.027682006 -0.48060465 0.70586836
13.088 22.774 0.93000001 0.51666057 0.02992931 -0.47964692 0.70561677
13.115 22.988001 0.93599999 0.51712906 0.031355888 -0.47856092 0.70528448
13.139 23.198 0.94099998 0.51778078 0.033241309 -0.47803801 0.70549434
13.167 23.417999 0.94700003 0.51891124 0.037154891 -0.47771281 0.70629942
13.193 23.638 0.95200002 0.52005202 0.039933555 -0.47652543 0.70648801
12.825 20.973 0.76800001 0.4585855 0.14186248 -0.72505879 0.86956072
12.845 21.155001 0.77200001 0.50343734 0.13090694 -0.61204821 0.80323648
12.86 21.330999 0.77600002 0.51379496 0.01988975 -0.49928871 0.71670783
12.886 21.527 0.77999997 0.51426941 0.022289015 -0.49502754 0.7141583
12.905 21.714001 0.78399998 0.51478428 0.024888612 -0.49243596 0.7128222
12.967 21.898001 0.78799999 0.51482797 0.025315523 -0.49051902 0.71154594
12.988 22.09 0.792 0.51510429 0.026666135 -0.48610657 0.70876169
13.018 22.302 0.796 0.51533079 0.027400866 -0.48333955 0.70705992
13.042 22.504999 0.801 0.51616156 0.028082699 -0.48142639 0.7063871
13.065 22.709 0.80500001 0.51653814 0.02916117 -0.48074549 0.70624232
13.097 22.933001 0.81 0.51693171 0.030947655 -0.48052096 0.7064535
13.119 23.141001 0.81400001 0.51751089 0.031772077 -0.48097661 0.70722377
13.185 23.341999 0.81900001 0.51839429 0.035138175 -0.47996917 0.70734555
13.21 23.559999 0.82300001 0.51955181 0.038134128 -0.47858927 0.70741504
12.812 20.844 0.57999998 0.44716525 0.17574903 -0.73626649 0.87916601
12.831 21.023001 0.58200002 0.49753425 0.12356005 -0.63432628 0.815584
12.856 21.212999 0.58499998 0.51115596 0.034647923 -0.55891144 0.75819713
12.878 21.400999 0.588 0.51381248 0.019295745 -0.49202034 0.71165973
12.9 21.591 0.58999997 0.51411831 0.02119457 -0.49016181 0.7106514
12.925 21.787001 0.59299999 0.514503 0.022995636 -0.48636174 0.70837128
12.952 21.99 0.59600002 0.51482344 0.024804324 -0.48453906 0.7074154
12.971 22.18 0.59899998 0.51507944 0.026360869 -0.48356378 0.70699054
13.028 22.358 0.60100001 0.51533413 0.026040807 -0.48256305 0.70648032
13.061 22.577 0.60399997 0.51615995 0.027399361 -0.48164621 0.70650893
13.091 22.792999 0.60799998 0.51664561 0.029888771 -0.4805707 0.70623243
13.113 22.999001 0.61000001 0.5169819 0.031400017 -0.47839749 0.70506763
13.143 23.219 0.61400002 0.51797014 0.034527808 -0.48028177 0.70721692
13.17 23.438 0.61699998 0.51876366 0.036381088 -0.47929382 0.70722127
13.192 23.65 0.62 0.51987231 0.039160386 -0.4796921 0.7084527
12.815 21.02 0.456 0.49093458 0.12497327 -0.65437222 0.82754946
12.841 21.212999 0.458 0.50751901 -0.009560436 -0.51932436 0.72619885
12.863 21.400999 0.46000001 0.50877303 -0.0073876753 -0.49901283 0.71268392
12.887 21.594 0.461 0.51411533 0.021193057 -0.48809481 0.70922512
12.906 21.782 0.463 0.51425403 0.021460384 -0.48541045 0.70748931
12.937 21.992001 0.465 0.51457173 0.023257613 -0.48330247 0.70633298
12.997 22.174 0.46700001 0.51507151 0.026400134 -0.48252439 0.7062757
13.013 22.362 0.46900001 0.51517904 0.025370546 -0.4824006 0.70623183
13.047 22.584999 0.47099999 0.51616913 0.027267449 -0.48274693 0.70726138
13.075 22.797001 0.47299999 0.51646477 0.028495595 -0.48075625 0.70616883
13.095 23 0.47499999 0.51704347 0.031438537 -0.47954786 0.70589554
13.135 23.24 0.477 0.51781636 0.033680364 -0.47802925 0.70553535
13.146 23.431 0.479 0.51867616 0.03650175 -0.47679546 0.70547235
13.174 23.656 0.48100001 0.51977253 0.039044842 -0.47763813 0.70698386
12.779 20.912001 0.28400001 0.47826657 0.14383002 -0.68288743 0.84602672
12.801 21.094999 0.285 0.50471717 0.09311375 -0.61129129 0.79817706
12.855 21.259001 0.285 0.50323135 -0.0291982 -0.51179379 0.71835035
12.879 21.450001 0.28600001 0.50862092 -0.0079256222 -0.49989447 0.71319878
12.909 21.653 0.28600001 0.51354247 0.017689914 -0.49013513 0.71012062
12.93 21.844999 0.287 0.51382732 0.018790297 -0.48589218 0.70743394
12.957 22.048 0.287 0.51447451 0.022378258 -0.48405227 0.70674706
12.981 22.247 0.28799999 0.5150435 0.025858223 -0.48203477 0.70590085
13.009 22.457001 0.289 0.51545858 0.0250265 -0.4814451 0.70577139
13.073 22.649 0.289 0.51610547 0.026349686 -0.48131454 0.7062031
13.095 22.853001 0.28999999 0.51646984 0.027989917 -0.48102063 0.70633233
13.122 23.066 0.28999999 0.51696163 0.030317724 -0.48060274 0.70650369
13.155 23.292999 0.29100001 0.51787931 0.033411309 -0.4795467 0.70659775
13.185 23.52 0.292 0.51897919 0.037420191 -0.47783691 0.7064473
12.724 20.926001 0.169 0.4957467 0.12694022 -0.63884538 0.81853652
12.732 21.089001 0.168 0.50618905 0.0015657172 -0.55697876 0.75263214
12.741 21.254 0.168 0.4747861 -0.107083 -0.53033525 0.71982223
12.844 21.503 0.168 0.5087257 -0.0073165596 -0.50018615 0.71347147
12.927 21.798 0.167 0.51375347 0.018364631 -0.48640361 0.70772058
12.963 22.016001 0.167 0.51422101 0.021132812 -0.48485649 0.70707542
12.987 22.216999 0.167 0.5146485 0.023398057 -0.48303273 0.706209
13.014 22.424 0.16599999 0.51542103 0.025161795 -0.48202822 0.70614672
13.045 22.642 0.16599999 0.51608187 0.02624438 -0.48213306 0.70674008
13.075 22.860001 0.16599999 0.5165152 0.028224446 -0.4823752 0.70729798
13.132 23.044001 0.16500001 0.51692021 0.029978938 -0.48173511 0.70722973
13.162 23.268 0.16500001 0.51747471 0.031511433 -0.48135585 0.70744359
13.183 23.476 0.16500001 0.51842225 0.034065925 -0.47932845 0.70687896
13.218 23.712999 0.164 0.51943868 0.036609158 -0.4774206 0.70646101
12.611 20.618999 0.015 0.3909665 0.26547933 -0.77646601 0.90897393
12.534 20.639999 0.016000001 0.37439281 0.25826329 -0.80092466 0.92105931
12.448 20.643 0.016000001 0.38624096 0.24041538 -0.79610062 0.91692847
12.369 20.66 0.016000001 0.38019365 0.23417696 -0.80616063 0.92156446
12.286 20.667 0.016000001 0.34634763 0.23518106 -0.84077871 0.93924206
12.242 20.667999 0.017000001 -0.26267353 -0.021491379 -0.09386912 0.27976897
11.923 20.718 0.017999999 -0.12229295 0.55782366 -0.60426253 0.8314181
11.837 20.719 0.017999999 -0.15060104 0.56064743 -0.45494467 0.73755062
11.76 20.735001 0.017999999 -0.13088703 0.56743962 -0.45492157 0.73896736
11.683 20.750999 0.017999999 -0.11504445 0.5716356 -0.44794813 0.73529589
11.632 20.738001 0.018999999 -0.10562055 0.57486212 -0.45752758 0.74226254
12.818 21.01 -0.139 0.51155615 0.092594393 -0.5789668 0.77811694
12.733 21.018 -0.139 0.51779574 0.060067091 -0.51196903 0.73063862
12.871 21.399 -0.14399999 0.49998444 -0.041540824 -0.5094021 0.71498293
12.882 21.57 -0.147 0.51269174 0.012446135 -0.49073541 0.70980906
12.917 21.784 -0.149 0.51291287 0.013714857 -0.49002093 0.70949858
12.945 21.988001 -0.152 0.5136466 0.017301574 -0.48620307 0.70747834
12.968 22.188 -0.155 0.51486909 0.024338774 -0.4850218 0.7077632
13.029 22.372999 -0.15700001 0.51517797 0.023857586 -0.48284742 0.70648366
13.039 22.554001 -0.16 0.51589942 0.025811978 -0.48223165 0.70665824
13.077 22.784 -0.163 0.51644027 0.027865574 -0.48120213 0.70642942
13.105 23 -0.16599999 0.51673269 0.029146969 -0.47975874 0.70571285
13.132 23.216999 -0.168 0.51715803 0.03025905 -0.47972527 0.70604843
11.649 20.740999 -0.12800001 -0.10957139 0.57100439 -0.42983949 0.7230587
13.185 23.658001 -0.17399999 0.51879853 0.034516901 -0.4738299 0.70346153
12.825 20.966999 -0.31 0.5164904 0.076014563 -0.44002905 0.68276358
12.849 21.156 -0.31400001 0.49279132 -0.0661752 -0.48679718 0.69584048
12.763 21.164 -0.31299999 0.48683894 -0.082701378 -0.48936385 0.69521838
12.927 21.511 -0.32100001 0.51193625 0.0080675408 -0.48891425 0.70794135
12.957 21.715 -0.32499999 0.51242751 0.010889806 -0.48586652 0.70623422
12.968 21.889 -0.32800001 0.51305425 0.014550716 -0.4843314 0.70570058
13.004 22.107 -0.333 0.51437759 0.022262029 -0.48149204 0.7049216
13.022 22.298 -0.336 0.51489693 0.02374272 -0.4799217 0.70427793
13.054 22.514999 -0.34099999 0.51578325 0.024948493 -0.48095423 0.70567113
13.085 22.731001 -0.345 0.51614267 0.026168309 -0.48088157 0.70592856
13.146 22.92 -0.34900001 0.51626754 0.026889727 -0.47883147 0.70465225
13.179 23.146999 -0.35299999 0.51677054 0.029146217 -0.47675824 0.7037043
13.186 23.327 -0.35699999 0.51735628 0.030523002 -0.47659349 0.70408136
13.236 23.587999 -0.36199999 0.51818669 0.031753056 -0.47444233 0.70329314
12.827 21.096001 -0.43900001 0.48395017 -0.021614611 -0.34655711 0.59563142
12.678 21 -0.435 0.35793447 -0.0095236972 -0.1376617 0.38361248
12.869 21.468 -0.44800001 0.51134127 0.0049286634 -0.48399395 0.70409113
12.913 21.618999 -0.45199999 0.51179969 0.0077805445 -0.48121831 0.70254576
12.948 21.833 -0.45699999 0.51243991 0.011427112 -0.47929972 0.70175028
12.98 22.046 -0.46200001 0.51428157 0.021505401 -0.4791325 0.70321828
12.995 22.23 -0.46700001 0.51462787 0.023591816 -0.47644314 0.70170969
13.028 22.448999 -0.472 0.51561499 0.025738023 -0.47834349 0.70379955
13.045 22.643 -0.477 0.51581371 0.024599321 -0.47663066 0.70274156
13.079 22.868 -0.48199999 0.51618284 0.026402287 -0.47733912 0.70355839
13.139 23.056999 -0.48699999 0.51634049 0.026700273 -0.47713956 0.70354998
13.169 23.278999 -0.493 0.51682538 0.028224193 -0.47550249 0.70285684
11.672 20.778999 -0.417 -0.13419932 0.55975282 -0.4048419 0.70372558
13.226 23.728001 -0.50400001 0.51944929 0.038560845 -0.47365159 0.70403147
