# .PCD v0.7 - Point Cloud Data file format
VERSION 0.7
FIELDS x y z normal_x normal_y normal_z curvature
SIZE 4 4 4 4 4 4 4
TYPE F F F F F F F
COUNT 1 1 1 1 1 1 1
WIDTH 262
HEIGHT 1
VIEWPOINT 0 0 0 1 0 0 0
POINTS 262
DATA ascii
-34.891998 17.304001 0.80000001 0.49447086 0.020425171 -0.54071563 0.73300207
-34.875999 17.16 0.79900002 0.49729913 0.059426494 -0.51851732 0.72090095
-34.855999 17.082001 0.79799998 0.49737322 0.055436574 -0.51844639 0.72058308
-34.855999 16.947001 0.79699999 0.49737048 0.064777769 -0.51543963 0.71920204
-34.859001 16.813 0.796 0.49720702 0.068319842 -0.5216552 0.72388297
-34.861 16.679001 0.796 0.49704289 0.071451984 -0.52169836 0.72410375
-34.866001 16.547001 0.79500002 0.49630913 0.074312069 -0.52278709 0.72467327
-34.877998 16.419001 0.79400003 0.49598289 0.070820898 -0.51607478 0.71926892
-34.876999 16.284 0.79299998 0.49491256 0.067588292 -0.50937885 0.71342373
-34.861 16.209999 0.79299998 0.49311891 0.061398461 -0.51699501 0.71709126
-34.869999 16.080999 0.792 0.49269065 0.058657777 -0.51163328 0.71270847
-34.862 15.945 0.79100001 0.49265578 0.056787137 -0.5048362 0.70766807
-34.862999 15.813 0.79000002 0.4925527 0.063860975 -0.49423578 0.7006821
-34.859001 15.68 0.78899997 0.49154174 0.061129313 -0.49314132 0.69895524
-34.834999 15.537 0.78799999 0.49061969 0.052516535 -0.48424184 0.69134349
-35.124001 15.534 0.792 0.49203265 0.05140762 -0.48337516 0.69165772
-34.907001 17.393999 0.60100001 0.48849553 -0.029114209 -0.53644502 0.72611898
-34.926998 17.267 0.60100001 0.49794769 0.058623541 -0.51003104 0.71520644
-34.953999 17.143999 0.60100001 0.49779609 0.060389243 -0.51159894 0.71636671
-34.922001 17.059999 0.60000002 0.49789628 0.058835261 -0.5095976 0.71487904
-34.933998 16.93 0.59899998 0.4979502 0.061434586 -0.50811106 0.71407664
-34.932999 16.794001 0.59899998 0.49798459 0.068942405 -0.50820196 0.71485031
-34.956001 16.671 0.59899998 0.49814755 0.070193611 -0.50863355 0.71539235
-34.965 16.541 0.59799999 0.49752718 0.07049796 -0.51212978 0.71748179
-34.943001 16.396 0.597 0.4969117 0.069946967 -0.50424874 0.71139342
-34.941002 16.261999 0.597 0.4966234 0.064629614 -0.50410169 0.71058446
-34.950001 16.132 0.59600002 0.49525711 0.064585023 -0.49886826 0.70591813
-34.921001 16.052 0.59600002 0.49297103 0.068379298 -0.49609369 0.70271266
-34.915001 15.917 0.59500003 0.49276322 0.06739863 -0.49089351 0.69880939
-34.904999 15.78 0.59399998 0.4927572 0.067985259 -0.49402991 0.70106864
-34.855999 15.626 0.59299999 0.49173558 0.060602341 -0.49189219 0.69816506
-34.863998 15.499 0.59299999 0.49111301 0.057603292 -0.4915925 0.69726127
-34.966 15.413 0.59299999 0.49135053 0.058348466 -0.49136895 0.69733298
-34.804001 17.354 0.329 0.48894581 -0.031984437 -0.51121825 0.70812082
-34.848 17.24 0.329 0.49783674 0.051409699 -0.50323159 0.70973688
-34.816002 17.087999 0.329 0.49782404 0.057379775 -0.50346053 0.71034759
-34.813999 16.951 0.329 0.49773568 0.060150258 -0.5036 0.71061373
-34.813 16.816 0.329 0.4979949 0.066733807 -0.50420505 0.71181113
-34.789001 16.737 0.32800001 0.49790451 0.067641862 -0.50298357 0.71096891
-34.786999 16.601 0.32800001 0.49742654 0.068687201 -0.50243735 0.71034807
-34.776001 16.462 0.32800001 0.49645495 0.074943811 -0.50343138 0.71100438
-34.785999 16.333 0.32800001 0.49652913 0.068751454 -0.49777669 0.70643443
-34.785999 16.200001 0.32800001 0.49463046 0.072161354 -0.493072 0.70213002
-34.787998 16.068001 0.32800001 0.49285766 0.067093998 -0.49570939 0.7022379
-34.792999 15.938 0.32699999 0.49274865 0.066797428 -0.49283502 0.70010674
-34.771999 15.862 0.32699999 0.49270606 0.068221942 -0.49008569 0.69828182
-34.771 15.73 0.32699999 0.49254227 0.072076067 -0.48830655 0.69730633
-34.763 15.595 0.32699999 0.49155605 0.061562475 -0.48571351 0.69378304
-34.796001 15.478 0.32699999 0.49119624 0.052771773 -0.49449977 0.69899118
-34.891998 15.39 0.32699999 0.49125016 0.046396658 -0.4948937 0.69885558
-34.955002 17.298 0.146 0.49846908 0.055606481 -0.50773096 0.71369058
-34.978001 17.173 0.146 0.49833429 0.057325222 -0.50807995 0.71398073
-35.028 17.061001 0.146 0.49839854 0.060235742 -0.50924015 0.71509087
-35.026001 16.924 0.146 0.49835533 0.061586656 -0.50910425 0.71507907
-34.993999 16.773001 0.146 0.49808863 0.066258237 -0.50870699 0.71502811
-35.008999 16.645 0.146 0.49825144 0.068519615 -0.50889206 0.71548623
-34.986 16.566999 0.146 0.49811539 0.069280483 -0.50831139 0.71505189
-34.974998 16.427999 0.147 0.49785495 0.069041707 -0.50715518 0.71402568
-34.990002 16.301001 0.147 0.49707544 0.072411828 -0.50569773 0.71278161
-34.977001 16.160999 0.147 0.49690306 0.06561245 -0.50367975 0.71057087
-34.984001 16.032 0.147 0.49648654 0.063999161 -0.50359249 0.71007055
-34.985001 15.899 0.147 0.49414507 0.062928423 -0.50255054 0.70759898
-34.997002 15.772 0.147 0.49324605 0.058614854 -0.50744849 0.71009248
-34.903 15.664 0.147 0.49309671 0.064099714 -0.49975055 0.70498496
-34.91 15.535 0.147 0.49286476 0.047765844 -0.5064472 0.70829797
-35.213001 15.538 0.147 0.49290085 0.047463395 -0.50715417 0.70880842
-34.872002 17.336 -0.101 0.49253988 -0.015882578 -0.50534129 0.7058453
-34.876999 17.27 -0.101 0.49646276 0.016137835 -0.50742215 0.71007949
-34.903 17.146999 -0.101 0.49822921 0.05394062 -0.50662911 0.71261138
-34.903999 17.011999 -0.1 0.49805388 0.058663469 -0.50676435 0.71295804
-34.914001 16.881001 -0.1 0.49819255 0.062767595 -0.50750983 0.713934
-34.910999 16.743999 -0.098999999 0.49796745 0.068443865 -0.50766343 0.71440768
-34.908001 16.608 -0.098999999 0.49813652 0.070006996 -0.5068081 0.71406966
-34.917999 16.478001 -0.097999997 0.49773467 0.075420596 -0.50666124 0.71423644
-34.911999 16.341 -0.097999997 0.4971928 0.069915235 -0.50781971 0.71412164
-34.882999 16.261 -0.097000003 0.49666327 0.073417723 -0.50797945 0.71421826
-34.877998 16.125 -0.097000003 0.49653655 0.068482943 -0.50955671 0.71476322
-34.881001 15.994 -0.097000003 0.49501556 0.068689935 -0.50886422 0.71323311
-34.883999 15.863 -0.096000001 0.49331594 0.063278854 -0.50473678 0.70860714
-34.866001 15.723 -0.096000001 0.49325126 0.067259774 -0.50085038 0.70616698
-34.826 15.573 -0.094999999 0.49309418 0.059093364 -0.50009364 0.70478898
-34.842999 15.45 -0.094999999 0.49234247 0.055728611 -0.5002225 0.70408052
-34.791 15.361 -0.093999997 0.49147508 0.056453094 -0.49925563 0.70284486
-34.869999 17.253 -0.34 0.49820271 0.04488305 -0.50227946 0.70887589
-34.900002 17.132 -0.33899999 0.49822173 0.05188584 -0.50138718 0.70873559
-34.912998 17.002001 -0.33899999 0.49809194 0.059615713 -0.50029713 0.70848209
-34.900002 16.927999 -0.338 0.49824163 0.06476862 -0.50084281 0.70942456
-34.881001 16.784 -0.33700001 0.49801981 0.065706156 -0.50135332 0.7097156
-34.898998 16.658001 -0.33700001 0.49815202 0.066900477 -0.50084221 0.70955902
-34.883999 16.516001 -0.33500001 0.49803334 0.072609417 -0.50102788 0.71016777
-34.891998 16.386 -0.33500001 0.49779469 0.070228182 -0.50294262 0.71111381
-34.875 16.243999 -0.33399999 0.49699968 0.068720728 -0.50383627 0.71104306
-34.860001 16.105 -0.333 0.49669629 0.070214011 -0.50407344 0.71114504
-34.853001 16.035 -0.33199999 0.49643311 0.071857348 -0.50222993 0.70981985
-34.848 15.9 -0.331 0.49393585 0.073221445 -0.50151694 0.70770985
-34.863998 15.775 -0.331 0.49310854 0.074687243 -0.49914628 0.705607
-34.816002 15.622 -0.329 0.49320179 0.069072828 -0.49910393 0.70507008
-34.808998 15.488 -0.329 0.49299502 0.060098846 -0.50607628 0.70906216
-35.077 15.475 -0.33199999 0.49359149 0.063207678 -0.50587285 0.70960206
-34.855 17.396 -0.61199999 0.48684838 -0.048924156 -0.49016765 0.69258881
-34.879002 17.271999 -0.611 0.49781886 0.038569912 -0.49131295 0.70049959
-34.908001 17.15 -0.61000001 0.49808893 0.048040539 -0.48900902 0.69966441
-34.915001 17.017 -0.60900003 0.49818474 0.058429599 -0.49024388 0.70138514
-34.924999 16.886999 -0.60799998 0.49827302 0.063600317 -0.49044219 0.70203596
-34.896 16.805 -0.60699999 0.49836609 0.063474409 -0.48932746 0.70131242
-34.904999 16.674 -0.60600001 0.49824604 0.065698005 -0.48918107 0.70132977
-34.904999 16.540001 -0.60500002 0.49814147 0.070381641 -0.48882559 0.70146203
-34.895 16.400999 -0.60299999 0.49815241 0.063210264 -0.49211463 0.70308477
-34.897999 16.268 -0.602 0.49741784 0.06975916 -0.49206972 0.70315254
-34.889 16.131001 -0.60100001 0.49693099 0.074025095 -0.49487454 0.70520985
-34.898998 16.003 -0.60000002 0.49690023 0.071817875 -0.49140635 0.70252961
-34.876999 15.926 -0.59899998 0.49580902 0.072666131 -0.49243811 0.70256829
-34.858002 15.785 -0.597 0.49369583 0.074084505 -0.4942829 0.70252377
-34.818001 15.636 -0.59500003 0.49346724 0.070894256 -0.49549308 0.7028864
-34.827999 15.509 -0.59399998 0.49328509 0.067545146 -0.4939245 0.70132297
-35.144001 15.518 -0.60000002 0.4937802 0.063545294 -0.48457024 0.69474113
-34.905998 17.41 -0.81300002 0.49170619 -0.028127152 -0.49310935 0.69693828
-34.938999 17.290001 -0.81199998 0.49802878 0.029501118 -0.48873138 0.69839913
-34.959 17.163 -0.81099999 0.49857748 0.063388124 -0.48548225 0.69877791
-34.986 17.040001 -0.81 0.49832347 0.067074671 -0.48349673 0.69756317
-34.991001 16.907 -0.80900002 0.49803069 0.064171776 -0.47707269 0.69264054
-34.987999 16.77 -0.80699998 0.49831074 0.065209821 -0.47796029 0.69355023
-34.990002 16.636 -0.80599999 0.4981046 0.06889122 -0.47897136 0.69445503
-34.973999 16.562 -0.80400002 0.49802628 0.070943311 -0.47913283 0.69471681
-34.959 16.42 -0.80199999 0.4981854 0.065540165 -0.47947088 0.69453329
-34.945 16.280001 -0.801 0.49782383 0.067156292 -0.47881377 0.69397491
-34.938 16.143 -0.79900002 0.49698186 0.069289975 -0.48082861 0.69497353
-34.952 16.017 -0.79799998 0.49671105 0.070259593 -0.48158827 0.69540316
-34.950001 15.883 -0.796 0.49675703 0.071293116 -0.48190579 0.69576102
-34.956001 15.753 -0.79500002 0.49540573 0.065868624 -0.47598848 0.69016707
-34.905998 15.599 -0.792 0.49310678 0.067527026 -0.47468629 0.68777996
-34.893002 15.528 -0.79100001 0.49308842 0.064471573 -0.4755722 0.6880855
-35.201 15.532 -0.79900002 0.49541011 0.057141282 -0.4767988 0.68995172
-34.865002 17.33 -1.0420001 0.49374306 -0.011204161 -0.4920494 0.6971516
-34.900002 17.209999 -1.041 0.4983727 0.059026264 -0.49402279 0.70421445
-34.903999 17.143999 -1.04 0.49841669 0.063262217 -0.49292755 0.7038458
-34.91 17.011999 -1.039 0.49833116 0.065564752 -0.49216962 0.7034654
-34.91 16.875999 -1.0369999 0.49826428 0.067868412 -0.48832318 0.70095146
-34.911999 16.742001 -1.035 0.49814895 0.070536703 -0.48814121 0.70100617
-34.909 16.605 -1.033 0.49806207 0.071591929 -0.48836327 0.70120603
-34.905998 16.469999 -1.031 0.49800745 0.074293427 -0.4818342 0.69691831
-34.902 16.334 -1.029 0.49809107 0.063659564 -0.48143217 0.69564658
-34.875 16.254 -1.027 0.49736053 0.067645632 -0.48384026 0.69716913
-34.875 16.121 -1.025 0.49693534 0.068375893 -0.47986203 0.6941812
-34.880001 15.991 -1.024 0.49658152 0.069521502 -0.47846982 0.69307995
-34.884998 15.86 -1.022 0.49605072 0.071393237 -0.47733933 0.69210988
-34.862 15.718 -1.02 0.49413145 0.070570685 -0.49014238 0.69956106
-34.845001 15.579 -1.017 0.4935593 0.064287037 -0.49091509 0.69909316
-34.859001 15.454 -1.016 0.49363941 0.066707484 -0.49102384 0.69945276
-34.755001 15.342 -1.012 0.49245656 0.070978627 -0.48326197 0.69360906
-34.903999 17.256001 -1.2970001 0.49859643 0.066191413 -0.50049925 0.70956272
-34.901001 17.118 -1.295 0.49837464 0.070355691 -0.49894732 0.70871407
-34.910999 16.988001 -1.293 0.49831775 0.071452595 -0.49822569 0.70827597
-34.863998 16.896999 -1.29 0.49802426 0.071452186 -0.48738712 0.70048541
-34.862999 16.761999 -1.2869999 0.4979153 0.071885303 -0.48350853 0.69775903
-34.875999 16.632999 -1.286 0.49771884 0.07468918 -0.48134568 0.69641668
-34.886002 16.504 -1.284 0.49759957 0.078341134 -0.47593322 0.69300437
-34.880001 16.367001 -1.281 0.49778667 0.073281653 -0.47855252 0.69438767
-34.883999 16.235001 -1.279 0.49664927 0.071904808 -0.46859777 0.68659645
-34.888 16.104 -1.277 0.49677423 0.064464323 -0.4751094 0.69041234
-34.882 15.969 -1.275 0.49654299 0.062624976 -0.47645763 0.69100559
-34.847 15.886 -1.272 0.49631616 0.062822469 -0.48023102 0.69346827
-34.855 15.758 -1.271 0.49513614 0.063863784 -0.48289657 0.69457
-34.834999 15.617 -1.268 0.49315849 0.057223327 -0.47568938 0.68757558
-34.848999 15.492 -1.266 0.49308127 0.052518673 -0.4738088 0.68584412
-35.118999 15.48 -1.276 0.49342847 0.047788117 -0.46692684 0.68101108
-36.869999 14.084 -1.317 -0.055826806 0.54863214 -0.59046209 0.80793524
-36.845001 14.009 -1.316 -0.055820815 0.54802287 -0.59494793 0.81080705
-36.853001 13.879 -1.314 -0.056551479 0.54845768 -0.59488237 0.81110352
-37.119999 13.847 -1.323 -0.064628564 0.55150431 -0.57047874 0.79610294
-37.460999 13.84 -1.336 -0.11131831 0.54594803 -0.53895223 0.77519059
-34.868999 17.288 -1.527 0.49752918 0.025339495 -0.49242562 0.70047152
-34.863998 17.15 -1.524 0.49823552 0.074324325 -0.49147663 0.70378405
-34.870998 17.017 -1.522 0.49809891 0.075038932 -0.49017593 0.70285547
-34.869999 16.881001 -1.52 0.49787095 0.080109306 -0.49010357 0.70320302
-34.870998 16.747 -1.517 0.49769315 0.082889579 -0.48869005 0.70241523
-34.847 16.667999 -1.5140001 0.4975071 0.082867898 -0.48573065 0.7002247
-34.852001 16.535999 -1.512 0.49721584 0.081705481 -0.47113955 0.68983465
-34.844002 16.398001 -1.5089999 0.49707681 0.076746874 -0.4664737 0.68598336
-34.847 16.266001 -1.507 0.49704939 0.06529884 -0.4684872 0.68615037
-34.847 16.132999 -1.5039999 0.49635786 0.062054399 -0.46689698 0.68426216
-34.848 16.000999 -1.502 0.49623278 0.061679058 -0.47031158 0.68647236
-34.844002 15.866 -1.499 0.49590501 0.06300465 -0.47305 0.68823516
-34.859001 15.741 -1.498 0.49443901 0.054767013 -0.46360803 0.68000126
-34.806999 15.652 -1.494 0.49283025 0.050043721 -0.46921086 0.6823085
-34.831001 15.531 -1.493 0.49287763 0.046728481 -0.469271 0.68214893
-34.917999 15.438 -1.494 0.49265277 0.034869589 -0.47615024 0.68603331
-36.832001 14.119 -1.551 -0.068402395 0.54979193 -0.57139522 0.79589105
-36.848 13.992 -1.549 -0.06689851 0.55219162 -0.56392014 0.79208392
-36.847 13.926 -1.548 -0.066937082 0.55212265 -0.56392789 0.79204464
-37.141998 13.904 -1.5599999 -0.0193533 0.55541128 -0.56054813 0.78934813
-37.439999 13.882 -1.572 -0.057085991 0.5515731 -0.55845487 0.78699654
-34.862 17.285 -1.75 0.49642476 0.02364897 -0.52795869 0.72507733
-34.896999 17.233999 -1.751 0.49731508 0.039074495 -0.52569854 0.72471237
-35.117001 17.205999 -1.76 0.49348798 0.12983584 -0.53411078 0.73868942
-34.786999 15.513 -1.709 0.49049875 0.0034263693 -0.49385083 0.69605273
-34.820999 15.462 -1.709 0.48950055 -0.0033420995 -0.49479023 0.69601673
-34.771999 15.31 -1.704 0.49016884 0.0058162138 -0.51498812 0.71099377
-36.049 14.144 -1.7410001 -0.25708261 0.46901074 -0.64677298 0.8392722
-36.067001 14.021 -1.739 -0.2092858 0.50522107 -0.61061627 0.81969571
-36.07 13.891 -1.737 -0.15129556 0.53139228 -0.58824486 0.80703163
-36.199001 13.811 -1.742 -0.11381462 0.54325008 -0.57520783 0.79933625
-36.541 13.81 -1.758 -0.070166655 0.55240256 -0.56482208 0.79315567
-36.931 13.824 -1.776 -0.066780396 0.55101401 -0.57158554 0.79673463
-37.248001 13.809 -1.791 -0.092255473 0.54413718 -0.58704925 0.80574387
-37.501999 13.836 -1.803 -0.11142261 0.53977746 -0.57936043 0.79964566
-34.837002 17.275999 -1.9960001 0.47513968 0.0026991479 -0.6362927 0.79412425
-34.987999 17.214001 -2.0020001 0.48041412 0.14905864 -0.59797513 0.78140289
-34.771 15.507 -1.95 0.49148175 0.023320764 -0.52687639 0.72090006
-35.081001 15.514 -1.966 0.48443541 -0.046232104 -0.50568545 0.70180684
-34.924999 15.379 -1.955 0.4852868 -0.02575656 -0.52243114 0.71351314
-36.073002 14.091 -1.987 -0.24245487 0.49643439 -0.57676011 0.79867625
-36.042999 14.014 -1.984 -0.24268371 0.49627456 -0.57677484 0.798657
-36.055 13.888 -1.982 -0.19046444 0.52307791 -0.55694777 0.78745031
-36.264999 13.838 -1.992 -0.12077113 0.54364443 -0.56245875 0.79151428
-36.675999 13.864 -2.0139999 -0.077883929 0.5512706 -0.56074727 0.79019153
-37.004002 13.855 -2.0309999 -0.075436153 0.54645461 -0.58771914 0.80605024
-37.327999 13.843 -2.0480001 -0.096769013 0.54183346 -0.58869392 0.80592078
-34.904999 17.306 -2.207 -0.39009467 0.23474354 -0.23628068 0.51293951
-34.945 17.190001 -2.2060001 -0.34957197 0.25990868 -0.19892046 0.47887623
-35.132999 17.214001 -2.217 -0.34988499 0.25551891 -0.19778669 0.47626567
-34.853001 15.542 -2.158 0.4771153 -0.067155898 -0.4916504 0.68838149
-34.875999 15.421 -2.1559999 0.43777618 -0.16471757 -0.45194343 0.65040964
-34.826 15.268 -2.1489999 0.40802336 -0.21307816 -0.43869355 0.63587528
-36.120998 14.107 -2.1960001 -0.21896529 0.51353252 -0.53421819 0.77269047
-36.153999 13.989 -2.1949999 -0.19364467 0.5247196 -0.53073537 0.77104408
-36.132 13.915 -2.1919999 -0.19378543 0.52452111 -0.53075653 0.77095896
-36.188 13.807 -2.1930001 -0.17187972 0.53220081 -0.53030026 0.77071309
-36.525002 13.803 -2.2130001 -0.094959125 0.55058157 -0.54636556 0.78145546
-36.944 13.829 -2.237 -0.085379854 0.54553056 -0.58549929 0.8047998
-37.268002 13.817 -2.256 -0.098227777 0.54203296 -0.5891844 0.80658954
-37.528 13.779 -2.27 -0.14058533 0.52949882 -0.59417039 0.80819035
-34.827999 17.271 -2.473 -0.33700889 0.25654304 -0.18218514 0.46106482
-34.873001 17.157 -2.4719999 -0.3084192 0.27745742 -0.16702577 0.44721654
-35.370998 17.264 -2.506 -0.28138906 0.17338118 -0.099054128 0.34503993
-34.804001 15.522 -2.4200001 0.44714043 -0.14948148 -0.48827031 0.67873943
-34.769001 15.375 -2.414 0.40483102 -0.22143859 -0.46331197 0.65389693
-34.973999 15.335 -2.425 0.40056485 -0.22854444 -0.47490019 0.66197807
-35.094002 15.256 -2.431 0.39852712 -0.23186097 -0.48679927 0.67049003
-35.215 15.177 -2.4360001 0.40488777 -0.22221091 -0.5107795 0.68862724
-35.029999 15.032 -2.421 0.40442535 -0.22207245 -0.51075542 0.68829292
-35.124001 14.942 -2.424 0.39689556 -0.232144 -0.50065285 0.67975748
-35.344002 14.775 -2.434 0.31207898 -0.23262459 -0.24824327 0.46166244
-35.493999 14.706 -2.441 0.3557069 -0.26588047 -0.38830942 0.58991867
-35.474998 14.568 -2.4360001 0.35698923 -0.26295763 -0.39253551 0.59217578
-35.564999 14.475 -2.4400001 0.36128378 -0.26656216 -0.42509073 0.61829078
-35.577 14.414 -2.4389999 0.36087385 -0.26597175 -0.42456707 0.61743671
-35.599998 14.293 -2.437 0.35301471 -0.27969813 -0.45606804 0.64097464
-35.801998 14.244 -2.4489999 -0.3367818 0.43925682 -0.47324792 0.72823906
-35.905998 14.155 -2.4530001 -0.33002424 0.44500268 -0.47919127 0.73250782
-36.035999 14.076 -2.46 -0.26638937 0.4810285 -0.4080255 0.6847164
-36.095001 13.968 -2.461 -0.2519075 0.49047947 -0.41287962 0.68883747
-36.042999 13.818 -2.454 -0.23323937 0.50219327 -0.42441463 0.69765782
-36.269001 13.775 -2.467 -0.18554732 0.52597243 -0.44604677 0.71416563
-36.564999 13.822 -2.487 -0.10621066 0.55022919 -0.52824289 0.77011263
-36.971001 13.843 -2.5139999 -0.090283938 0.54510313 -0.58285832 0.80312669
-37.297001 13.831 -2.5350001 -0.11066476 0.53556138 -0.60560995 0.81598783
-37.384998 13.731 -2.5380001 -0.12468695 0.53111774 -0.61292189 0.82055235
-37.366001 13.591 -2.5339999 -0.14569226 0.52721059 -0.60887003 0.81847417
-37.512001 13.51 -2.5409999 -0.18517202 0.50728416 -0.63329089 0.83227599
-37.745998 13.461 -2.5550001 -0.24790704 0.48891553 -0.58250022 0.79987669
-38.001999 13.485 -2.572 -0.27499944 0.46283498 -0.60725147 0.81153882
