# .PCD v0.7 - Point Cloud Data file format
VERSION 0.7
FIELDS x y z normal_x normal_y normal_z curvature
SIZE 4 4 4 4 4 4 4
TYPE F F F F F F F
COUNT 1 1 1 1 1 1 1
WIDTH 90
HEIGHT 1
VIEWPOINT 0 0 0 1 0 0 0
POINTS 90
DATA ascii
-43.797001 16.924999 1.7970001 0.49715045 0.063640304 -0.46754253 0.68542302
-43.798 16.767 1.795 0.49734172 0.063398965 -0.46670735 0.68497008
-43.771999 16.677999 1.793 0.49772915 0.06267418 -0.46884468 0.68664235
-43.792 16.528999 1.7920001 0.49810019 0.060248714 -0.47030771 0.68769401
-43.779999 16.367001 1.79 0.4988527 0.061101921 -0.47419938 0.69097936
-43.792 16.215 1.788 0.49874982 0.062531523 -0.47315326 0.69031554
-43.798 16.061001 1.7869999 0.4974463 0.038784176 -0.45827362 0.67747456
-43.800999 15.906 1.785 0.49619117 0.030251909 -0.45418385 0.67335266
-43.796001 15.749 1.783 0.49642086 0.024704207 -0.45546514 0.67416054
-43.794998 15.671 1.7819999 0.49554992 0.021769401 -0.4449926 0.66637981
-43.786999 15.204 1.776 0.4941411 -0.0031165555 -0.42543697 0.65205961
-44.075001 15.149 1.785 0.48742893 -0.013962761 -0.41268641 0.63882077
-43.924 14.943 1.778 0.48593491 -0.034483232 -0.40588275 0.63408411
-43.757999 16.955999 1.498 0.49737194 0.062884219 -0.48269859 0.69593906
-43.761002 16.799 1.497 0.49771178 0.062225942 -0.4836404 0.69677621
-43.756001 16.639 1.495 0.49842858 0.062645517 -0.48400509 0.69757897
-43.735001 16.552999 1.494 0.49833012 0.060317792 -0.4859924 0.69868433
-43.745998 16.4 1.492 0.4994413 0.060565397 -0.48592228 0.69944996
-43.754002 16.246 1.4910001 0.49911737 0.05907049 -0.48516303 0.69856328
-43.757999 16.091 1.49 0.49904904 0.052936569 -0.48354575 0.69689935
-43.763 15.938 1.488 0.49794635 0.037447918 -0.47275093 0.68763822
-43.757999 15.78 1.487 0.49850714 0.034314454 -0.46666795 0.68371475
-43.780998 15.633 1.4859999 0.49882564 0.029851247 -0.46316028 0.68134832
-43.751999 15.236 1.482 0.49874228 0.0079044513 -0.44912812 0.67120969
-44.007 15.171 1.488 0.49413437 0.0020260513 -0.44185573 0.66287959
-43.938 14.992 1.484 0.4929013 -0.016441666 -0.43272105 0.65610176
-43.780998 17.021999 1.278 0.4969143 0.054754823 -0.47263068 0.68796921
-43.776001 16.863001 1.277 0.49734023 0.0560758 -0.47185251 0.68784928
-43.759998 16.698999 1.275 0.49720824 0.056514133 -0.47115523 0.68731153
-43.775002 16.547001 1.274 0.49777645 0.057684012 -0.47200766 0.68840402
-43.773998 16.389999 1.273 0.49873394 0.058845233 -0.47227719 0.68937945
-43.779999 16.235001 1.272 0.49839765 0.061061099 -0.47144386 0.68875831
-43.771999 16.153999 1.271 0.49885669 0.063223518 -0.47343189 0.69064677
-43.768002 15.997 1.27 0.49868143 0.051379062 -0.47308815 0.68930066
-43.777 15.844 1.2690001 0.49828243 0.037898425 -0.46658698 0.68368495
-43.786999 15.692 1.268 0.49825943 0.033480559 -0.46705773 0.68375897
-43.783001 15.15 1.263 0.49986243 0.0089179464 -0.45618716 0.67679298
-43.872002 15.027 1.2640001 0.49815696 0.0026032031 -0.44920382 0.670784
-43.696999 16.997 0.921 0.49580932 0.051105909 -0.47168702 0.68624145
-43.738998 16.856001 0.921 0.4964357 0.051241204 -0.47569337 0.6894623
-43.728001 16.694 0.92000002 0.49707153 0.054627221 -0.47748443 0.69141567
-43.747002 16.544001 0.91900003 0.49792075 0.055348516 -0.47936532 0.69338274
-43.735001 16.382 0.91799998 0.49830279 0.053987112 -0.48004052 0.6940167
-43.756001 16.233999 0.91799998 0.49863422 0.052710369 -0.48091379 0.6947608
-43.751999 16.076 0.917 0.49892357 0.056307957 -0.48224241 0.69617027
-43.764999 15.925 0.91600001 0.49852461 0.045815729 -0.48401502 0.69634503
-43.737 15.837 0.91500002 0.49876851 0.045407951 -0.48477471 0.69702113
-43.747002 15.685 0.91500002 0.49961793 0.038381211 -0.47939005 0.69347388
-43.735001 15.217 0.912 0.50087142 0.018822182 -0.45843816 0.67925841
-43.735001 15.063 0.91100001 0.49976808 0.020003304 -0.45097917 0.67346156
-43.879002 14.959 0.91299999 0.498853 0.016266722 -0.44212055 0.66677547
-43.782001 16.875999 0.68099999 0.49653774 0.048700906 -0.47847554 0.69127446
-43.771 16.792999 0.68099999 0.49661323 0.049292982 -0.48165482 0.69357473
-43.756001 16.629999 0.68000001 0.49708295 0.051716238 -0.48190323 0.69425988
-43.786999 16.485001 0.68000001 0.49818763 0.052879974 -0.48143563 0.69481468
-43.780998 16.326 0.67900002 0.49845281 0.054518025 -0.48181167 0.69539189
-43.778999 16.169001 0.67900002 0.49882305 0.05449985 -0.48296669 0.69645637
-43.801998 16.021 0.67799997 0.49929368 0.055870313 -0.48444366 0.69792646
-43.777 15.856 0.67799997 0.49869981 0.051916152 -0.48456922 0.69728339
-43.777 15.778 0.67699999 0.49906072 0.048753824 -0.48453826 0.69729179
-43.775002 15.159 0.67500001 0.49970648 0.034449 -0.43990934 0.66664344
-43.842999 15.029 0.676 0.50028539 0.041916579 -0.43558526 0.66466308
-43.658001 17.011 0.35499999 0.49520078 0.040236693 -0.47570845 0.68785268
-43.664001 16.856001 0.354 0.4958072 0.046866272 -0.47434261 0.68776608
-43.68 16.705 0.354 0.4966954 0.046925038 -0.47409946 0.68824309
-43.68 16.547001 0.354 0.49715823 0.047017835 -0.47589284 0.68981951
-43.662998 16.462999 0.354 0.49754977 0.047925457 -0.47742677 0.69122279
-43.66 16.305 0.354 0.49864098 0.048552725 -0.47723168 0.69191784
-43.679001 16.156 0.354 0.49858746 0.051323023 -0.47620994 0.69137502
-43.668999 15.997 0.35299999 0.49863338 0.058812425 -0.47749129 0.69288677
-43.826 16.441 0.134 0.49788538 0.047384165 -0.47708586 0.69119173
-43.800999 16.353001 0.134 0.49808708 0.05020348 -0.47555536 0.69048101
-43.804001 16.197001 0.134 0.49837697 0.051344488 -0.47654644 0.69145668
-43.789001 16.035999 0.134 0.49889421 0.053856693 -0.47636798 0.69189769
-43.710999 16.735001 -0.163 0.4964256 0.048018586 -0.47544336 0.68905044
-43.729 16.427999 -0.162 0.49764737 0.047639899 -0.46969438 0.68595576
-43.728001 16.271 -0.162 0.49843714 0.045035806 -0.47121599 0.68739533
-43.712002 16.187 -0.162 0.49801776 0.042873636 -0.47294185 0.68813795
-43.708 16.028999 -0.161 0.49849567 0.048926719 -0.47259158 0.68864691
-43.721001 15.878 -0.161 0.49943113 0.047403358 -0.47776484 0.69277543
-43.737999 15.729 -0.161 0.49981916 0.03299322 -0.49086118 0.7013219
-43.698002 16.861 -0.45100001 0.49550429 0.032092284 -0.49289346 0.69964159
-43.694 16.780001 -0.45100001 0.49551058 0.032803711 -0.48821807 0.69639337
-43.687 16.620001 -0.44999999 0.49658534 0.040807463 -0.49151146 0.69988984
-43.675999 16.302999 -0.44800001 0.49790654 0.051859029 -0.49435312 0.70355189
-43.705002 16.157 -0.44800001 0.49845365 0.056386165 -0.49203125 0.70265937
-43.717999 16.006001 -0.447 0.49890107 0.026460052 -0.50336099 0.70920706
-43.723 15.852 -0.44600001 0.49960867 0.041801021 -0.51198125 0.71657586
-43.696999 15.765 -0.44600001 0.50079405 0.044665672 -0.50311285 0.7112751
-43.702999 15.613 -0.44499999 0.50071645 0.041944213 -0.49536663 0.70559502
