# .PCD v0.7 - Point Cloud Data file format
VERSION 0.7
FIELDS x y z normal_x normal_y normal_z curvature
SIZE 4 4 4 4 4 4 4
TYPE F F F F F F F
COUNT 1 1 1 1 1 1 1
WIDTH 172
HEIGHT 1
VIEWPOINT 0 0 0 1 0 0 0
POINTS 172
DATA ascii
50.514 13.163 1.974 0.13779122 0.59065521 -0.54997182 0.8187362
50.124001 13.229 1.962 0.31085739 0.4839007 -0.64892685 0.86712068
49.756001 13.299 1.951 0.43995976 0.34450409 -0.6331718 0.84448457
49.625 13.348 1.947 0.44026467 0.34435695 -0.63318741 0.84459519
49.625 13.515 1.948 0.45918989 0.30280542 -0.6424709 0.84576315
49.652 13.69 1.951 0.52515012 0.12914059 -0.51002574 0.74336141
49.659 13.86 1.9529999 0.52523243 0.095696785 -0.51286775 0.74031097
49.673 14.032 1.955 0.52352291 0.068148136 -0.5130167 0.73614299
49.715 14.213 1.9579999 0.52125216 0.04575409 -0.47589195 0.70729792
49.799 14.491 1.9630001 0.51983118 0.041262582 -0.45929164 0.6948927
49.817001 14.666 1.965 0.52008981 0.044181317 -0.45908314 0.69512784
49.824001 14.839 1.967 0.52080917 0.051778771 -0.45398882 0.69284129
49.849998 15.017 1.97 0.52489901 0.11401632 -0.44697097 0.6987859
49.870998 15.195 1.972 0.52486265 0.12967427 -0.4464682 0.70116335
49.907001 15.377 1.975 0.49754512 0.2132768 -0.34288758 0.64078861
49.917999 15.553 1.977 0.46906695 0.31485838 -0.35025305 0.66470808
49.941002 15.646 1.979 0.45695111 0.3322261 -0.33726805 0.65797281
49.84 15.786 1.977 0.43543297 0.38424897 -0.3583172 0.68237847
49.507 15.852 1.967 0.27160963 0.54914713 -0.38470009 0.72341448
49.158001 15.911 1.956 0.16921872 0.60344017 -0.45855021 0.77655864
48.820999 15.971 1.946 0.094934262 0.61978221 -0.50338382 0.80407572
48.48 16.028 1.936 0.092757605 0.6193108 -0.51778978 0.81256145
48.146999 16.086 1.926 0.096648127 0.61855531 -0.51522034 0.81080431
47.841999 16.066999 1.916 0.096258797 0.61811012 -0.51280481 0.80888486
47.513 16.122999 1.906 0.095553279 0.61817312 -0.50490922 0.80386674
47.174 16.173 1.895 0.090704545 0.61908907 -0.49669623 0.79887778
46.882 16.238001 1.887 0.090853237 0.61937863 -0.48782152 0.79363346
46.553001 16.288 1.877 0.091630667 0.61998981 -0.48354664 0.79158127
50.438 13.088 1.64 0.15345651 0.58425587 -0.55444872 0.81994951
50.076 13.162 1.631 0.27339762 0.52905184 -0.57917655 0.83071506
49.662998 13.221 1.6210001 0.44316119 0.36382109 -0.5797385 0.815386
49.591 13.368 1.62 0.4982515 0.26213488 -0.53140759 0.77418554
49.634998 13.464 1.622 0.47769901 0.30719781 -0.56097841 0.79828793
49.672001 13.641 1.624 0.51818979 0.17992392 -0.53705704 0.76767415
49.689999 13.814 1.626 0.52523327 0.1104159 -0.51596075 0.7444979
49.728001 13.993 1.628 0.52461582 0.080891117 -0.51165789 0.73726445
49.771999 14.513 1.633 0.52048779 0.041823059 -0.47395518 0.7051881
49.813 14.61 1.635 0.52063054 0.043824933 -0.47182357 0.70398456
49.832001 14.786 1.637 0.52090824 0.046730779 -0.46963409 0.70291203
49.861 14.965 1.6390001 0.52537417 0.09638641 -0.46413195 0.70762056
49.875 15.14 1.641 0.52560854 0.122653 -0.45472398 0.70574921
49.897999 15.318 1.643 0.51291978 0.22148661 -0.42520058 0.70209581
49.917 15.496 1.645 0.50664312 0.24755935 -0.41897932 0.70250732
49.881001 15.657 1.645 0.47857156 0.33336732 -0.43817979 0.72949713
49.761002 15.791 1.643 0.38568228 0.47146317 -0.45723608 0.76163852
49.449001 15.778 1.635 0.29907617 0.54296952 -0.46381998 0.77420372
49.094002 15.835 1.626 0.15924165 0.60642135 -0.47983927 0.78952551
48.758999 15.896 1.618 0.094251901 0.61888939 -0.51095748 0.80807489
48.428001 15.957 1.61 0.094747826 0.61887133 -0.51098537 0.8081367
48.084 16.011 1.601 0.095461823 0.6183188 -0.50801736 0.80592352
47.755001 16.069 1.5930001 0.095210984 0.61808234 -0.51245224 0.80851603
47.435001 16.127001 1.585 0.092762634 0.61764061 -0.51192987 0.80756241
47.130001 16.106001 1.577 0.098060302 0.61666501 -0.50957298 0.80595046
46.810001 16.162001 1.569 0.097986974 0.61692113 -0.50516868 0.80336076
46.497002 16.216999 1.562 0.097009391 0.61571717 -0.50337809 0.80119157
50.200001 13.138 1.39 0.2497102 0.54836512 -0.5403235 0.80932623
49.863998 13.218 1.383 0.43412912 0.39207143 -0.50069696 0.76999062
49.618 13.319 1.378 0.4591679 0.35343152 -0.48374146 0.754821
49.648998 13.495 1.38 0.50712496 0.24098384 -0.50112498 0.75257903
49.664001 13.667 1.381 0.52494252 0.13656923 -0.50206023 0.73910773
49.700001 13.845 1.383 0.52594548 0.110874 -0.49737838 0.73232299
49.742001 13.941 1.385 0.52590108 0.10396706 -0.49902987 0.73240143
49.761002 14.115 1.386 0.5218398 0.04573293 -0.48333842 0.71275824
49.816002 14.469 1.39 0.52035713 0.039957143 -0.47658074 0.70675123
49.735001 14.616 1.3890001 0.52032965 0.040646851 -0.47658694 0.70677453
49.844002 14.818 1.393 0.52180684 0.051890604 -0.47755805 0.70925081
49.865002 14.995 1.3940001 0.526218 0.11018223 -0.480084 0.72078162
49.917999 15.096 1.396 0.52624583 0.12787732 -0.4923934 0.73194164
49.937 15.274 1.398 0.52450478 0.16749506 -0.48098603 0.73110014
49.950001 15.449 1.399 0.51499903 0.22921719 -0.48305494 0.74236554
49.998001 15.637 1.401 0.48678911 0.31989434 -0.48289871 0.75662881
49.886002 15.774 1.4 0.41522887 0.43886217 -0.49514341 0.78114146
49.594002 15.853 1.3940001 0.29690489 0.5442127 -0.50506377 0.79963082
49.255001 15.915 1.387 0.16487888 0.60511255 -0.49948815 0.80176967
48.946999 15.9 1.38 0.096909873 0.61878467 -0.51416194 0.8103385
48.605999 15.958 1.373 0.098418251 0.61831576 -0.50879014 0.80676389
48.279999 16.02 1.367 0.097281806 0.61787415 -0.51195383 0.80828762
47.942001 16.073999 1.36 0.098149382 0.61752892 -0.51175845 0.80800492
47.627998 16.136 1.354 0.096648037 0.61722243 -0.51187587 0.8076641
47.303001 16.191 1.347 0.097187534 0.61766493 -0.50857782 0.80598187
46.978001 16.245001 1.34 0.09810254 0.61706805 -0.51056051 0.80688858
46.675999 16.223 1.334 0.091541059 0.61716664 -0.51633143 0.80985963
46.390999 16.287001 1.3279999 0.090266541 0.61512744 -0.52036607 0.81074697
51.286999 12.979 1.013 0.11116734 0.60036594 -0.49048093 0.78317875
50.893002 13.05 1.007 0.094565801 0.60158843 -0.49004775 0.78166366
50.5 13.118 1.001 0.15435304 0.58821809 -0.47807473 0.77355081
50.131001 13.106 0.99599999 0.26876414 0.53923291 -0.51872468 0.7950356
49.77 13.18 0.991 0.45740175 0.35444471 -0.5107097 0.77179778
49.639999 13.312 0.99000001 0.4938648 0.27874923 -0.49404219 0.75211787
49.650002 13.482 0.99000001 0.50645918 0.24269202 -0.48884842 0.74456233
49.686001 13.66 0.99199998 0.52061737 0.17780811 -0.4988834 0.74265927
49.691002 13.829 0.99199998 0.5259732 0.10003687 -0.49231917 0.72734678
49.715 14.004 0.99299997 0.52399868 0.063602112 -0.48657924 0.71789914
49.755001 14.1 0.99400002 0.52264249 0.051204707 -0.4833304 0.71371239
49.820999 14.457 0.99699998 0.52078956 0.041481212 -0.48832795 0.71512705
49.835999 14.631 0.99800003 0.52094781 0.044144459 -0.49039662 0.71681535
49.855 14.807 0.99900001 0.52223134 0.054823924 -0.49431244 0.72116297
49.879002 14.985 1 0.5255245 0.10291231 -0.50696474 0.73741454
49.814999 15.136 1 0.51899481 0.1949192 -0.52123481 0.76094335
49.945999 15.262 1.002 0.52314168 0.17025551 -0.51516253 0.75369531
49.963001 15.439 1.003 0.50438523 0.24646577 -0.56229842 0.79456234
49.948002 15.606 1.0039999 0.48566401 0.30108052 -0.57200724 0.80852413
49.827999 15.741 1.003 0.37840396 0.46128231 -0.59528518 0.84281397
49.483002 15.803 0.99800003 0.25850514 0.55943596 -0.56612408 0.83683336
49.146 15.866 0.99299997 0.15683152 0.60354823 -0.54170811 0.82602322
48.793999 15.922 0.98900002 0.097837701 0.6186704 -0.50447035 0.80424845
48.493 15.908 0.98400003 0.095988929 0.61799383 -0.510171 0.80709642
48.143002 15.961 0.97899997 0.099753156 0.61653435 -0.51348114 0.80853456
47.844002 16.028999 0.97500002 0.097588122 0.61704373 -0.5127542 0.80819756
47.501999 16.080999 0.97100002 0.095320679 0.61718255 -0.50810808 0.80509263
47.179001 16.136999 0.96600002 0.094954759 0.61601716 -0.51560342 0.80891311
46.874001 16.198 0.96200001 0.093744323 0.616005 -0.52392328 0.81409198
46.547001 16.249001 0.958 0.091156162 0.61419708 -0.52387077 0.81239647
46.259998 16.312 0.954 0.084732793 0.61535299 -0.52679431 0.81446373
51.375999 12.918 0.74199998 0.096891597 0.60092509 -0.4560141 0.76055753
50.993999 12.992 0.73900002 0.09685313 0.6011861 -0.47509733 0.77234882
50.291 12.981 0.73199999 0.17594776 0.57967073 -0.48715955 0.77736747
50.227001 13.133 0.73199999 0.24346979 0.55235708 -0.45252466 0.75442326
49.800999 13.188 0.72799999 0.44953695 0.3674728 -0.50001001 0.76624393
49.604 13.22 0.72600001 0.49143305 0.28287935 -0.51273531 0.76447672
49.627998 13.393 0.727 0.50193053 0.2544921 -0.51221335 0.76096189
49.654999 13.568 0.727 0.51626116 0.19861299 -0.51494145 0.75573635
49.657001 13.736 0.72799999 0.52552181 0.12587592 -0.4966141 0.73392338
49.686001 13.913 0.72899997 0.52565759 0.093232796 -0.50142384 0.73241663
49.723 14.092 0.72899997 0.5219723 0.045386404 -0.49265099 0.71918011
49.813999 14.541 0.73199999 0.52103174 0.042728014 -0.49032772 0.71674335
49.835999 14.717 0.73199999 0.52162951 0.048831441 -0.49623767 0.72161877
49.839001 14.889 0.73299998 0.52333558 0.075505808 -0.51463795 0.73785734
49.874001 15.07 0.73400003 0.51915979 0.13741712 -0.56550521 0.77987593
49.888 15.246 0.73400003 0.51672012 0.17570709 -0.56373847 0.78464878
49.845001 15.404 0.73400003 0.49739289 0.23901176 -0.60466981 0.81862807
49.912998 15.597 0.736 0.45732376 0.34242922 -0.61121309 0.83665061
49.858002 15.666 0.73500001 0.41818416 0.39316142 -0.63747221 0.85780227
49.567001 15.745 0.73299998 0.31482008 0.49886763 -0.64523482 0.87424743
49.229 15.809 0.73000002 0.20255305 0.57262433 -0.61772293 0.86631864
48.902 15.873 0.727 0.099015944 0.61773872 -0.51698929 0.811593
48.548 15.926 0.72299999 0.094166115 0.61848354 -0.50403804 0.80339497
48.207001 15.982 0.72000003 0.093017302 0.61748338 -0.51265723 0.80793279
47.905998 16.049999 0.71799999 0.096223027 0.6164282 -0.5221712 0.81357569
47.549 16.013 0.71399999 0.099797383 0.61473489 -0.52241719 0.81288266
47.262001 16.082001 0.71200001 0.088574342 0.61591679 -0.52348709 0.81316519
46.937 16.136 0.70899999 0.088776901 0.61652273 -0.52515507 0.81472051
46.624001 16.191999 0.70599997 0.093044385 0.61354864 -0.53544438 0.81963402
46.303001 16.243 0.70300001 0.088028908 0.61299556 -0.54186767 0.82288104
51.424999 12.896 0.37400001 0.093498565 0.60138023 -0.45527992 0.76005262
51.02 12.965 0.373 0.096108094 0.60021722 -0.4717651 0.76945424
50.723 13.059 0.37200001 0.094492704 0.59972733 -0.46846312 0.76685035
49.667 13.121 0.36899999 0.48714808 0.29392236 -0.49306273 0.7528708
49.560001 13.26 0.36899999 0.49811575 0.26481712 -0.50773591 0.75897509
49.584 13.433 0.36899999 0.50209129 0.25273553 -0.51568413 0.76282436
49.630001 13.529 0.36899999 0.50215143 0.25372511 -0.51547146 0.76304871
49.646999 13.702 0.36899999 0.52276975 0.13515118 -0.536147 0.76092553
49.676998 13.878 0.36899999 0.52515042 0.09273126 -0.51409656 0.74072754
49.720001 14.058 0.37 0.52272177 0.05155259 -0.49260354 0.7201069
46.487 16.115999 0.36199999 0.09716107 0.60767567 -0.55996549 0.83202851
46.172001 16.169001 0.361 0.090327717 0.60717583 -0.57375795 0.84024984
51.291 13.046 0.124 0.090558082 0.60191321 -0.45711017 0.76121616
50.859001 13.106 0.125 0.09260574 0.60119051 -0.46840316 0.76772869
49.962002 13.21 0.126 0.3367261 0.48500109 -0.40488446 0.71592033
49.646999 13.294 0.127 0.49207494 0.28206083 -0.47226077 0.73805577
49.641998 13.46 0.127 0.51585996 0.20094597 -0.46851134 0.72525418
49.679001 13.637 0.127 0.51975203 0.18238258 -0.48018438 0.73074114
49.745998 13.74 0.127 0.51984459 0.18325746 -0.47988471 0.730829
49.737 13.906 0.126 0.52502918 0.075360306 -0.48270303 0.71717298
49.758999 14.08 0.126 0.52303344 0.055130776 -0.47647175 0.70966804
51.124001 13.056 -0.20999999 0.058121212 0.60246164 -0.43099877 0.74303299
50.759998 13.049 -0.207 0.084306493 0.600613 -0.45909497 0.7606653
49.819 13.141 -0.2 0.40999979 0.34698889 -0.28352302 0.60736018
49.591999 13.248 -0.199 0.51193327 0.17637505 -0.39980012 0.67307055
49.617001 13.422 -0.199 0.51411039 0.17253447 -0.40768549 0.67844313
49.639999 13.596 -0.2 0.51684451 0.15105152 -0.40741807 0.67522907
49.654999 13.768 -0.2 0.51997 0.14092226 -0.42074296 0.6835587
