# .PCD v0.7 - Point Cloud Data file format
VERSION 0.7
FIELDS x y z normal_x normal_y normal_z curvature
SIZE 4 4 4 4 4 4 4
TYPE F F F F F F F
COUNT 1 1 1 1 1 1 1
WIDTH 141
HEIGHT 1
VIEWPOINT 0 0 0 1 0 0 0
POINTS 141
DATA ascii
35.799999 -17.209999 1.3 0.054135639 0.43099228 -0.54103738 0.6938346
36.124001 -17.226999 1.308 0.036452368 0.43088415 -0.54367185 0.69467187
36.505001 -17.268 1.318 0.042836368 0.42649955 -0.54462337 0.69307393
38.127998 -17.381001 1.36 -0.0013447478 0.42828768 -0.5242275 0.67693919
38.341 -17.333 1.365 0.01757179 0.42845276 -0.5288409 0.68084747
40.143002 -17.545 1.4119999 0.022808637 0.43057421 -0.55892223 0.70590967
35.967999 -17.142 1.1160001 0.016061595 0.42500496 -0.59739381 0.73332566
36.226002 -17.195 1.122 0.025219833 0.42083919 -0.6021679 0.73508358
36.719002 -17.288 1.133 0.044748507 0.42112064 -0.57866353 0.71707499
36.932999 -17.247 1.137 0.043961778 0.41509134 -0.60484606 0.73489606
37.354 -17.299999 1.146 0.021683184 0.42030254 -0.58836216 0.72339088
37.634998 -17.287001 1.152 0.013809416 0.42081678 -0.58442187 0.72029603
37.991001 -17.306 1.159 -0.0030123601 0.42550755 -0.55743474 0.70128399
39.480999 -17.462 1.192 0.074158616 0.41490686 -0.61479825 0.74540198
40.221001 -17.488001 1.207 0.027207104 0.42905924 -0.57003105 0.71398002
40.498001 -17.457001 1.2130001 -0.0014421269 0.42816004 -0.57682157 0.71836358
40.828999 -17.447001 1.22 0.054012131 0.43070996 -0.56170678 0.70988929
41.088001 -17.482 1.225 0.055792309 0.43502253 -0.4781746 0.64885157
36.375999 -17.195 0.81999999 0.038365979 0.41838092 -0.60263312 0.73462999
36.723 -17.289 0.82499999 0.041731935 0.41579998 -0.6065504 0.7365694
37.147999 -17.347 0.83099997 0.039726961 0.41378465 -0.61282396 0.74050599
37.514999 -17.375 0.83700001 0.023129987 0.41406861 -0.61546737 0.7421509
37.838001 -17.381001 0.84100002 0.015874162 0.41166833 -0.62543178 0.74892437
38.053001 -17.334999 0.84399998 0.017520986 0.41352874 -0.6201787 0.74561024
38.243 -17.277 0.84600002 0.019819103 0.41403589 -0.61992872 0.74574131
38.611 -17.297001 0.85100001 0.052991614 0.41167927 -0.62429965 0.7496919
39.169998 -17.474001 0.86000001 0.076432727 0.40654147 -0.63943499 0.76157403
39.554001 -17.497 0.866 0.077497609 0.40997112 -0.63269925 0.75788558
40.029999 -17.556999 0.87300003 0.043568682 0.41398597 -0.63387102 0.75833708
40.306 -17.528 0.87599999 0.050624862 0.41293436 -0.6379655 0.76162827
40.737999 -17.563999 0.88300002 0.040456675 0.40261084 -0.67392379 0.78606963
40.963001 -17.509001 0.88499999 0.070884854 0.41745472 -0.62292284 0.75321043
36.282001 -17.372 0.61400002 0.042409308 0.41886011 -0.59707737 0.73057765
36.384998 -17.281 0.61400002 0.042904906 0.41812754 -0.60067165 0.73312885
36.712002 -17.295 0.61699998 0.041439537 0.41817838 -0.59626222 0.72946483
37.352001 -17.452999 0.62400001 0.034729354 0.40992695 -0.62812269 0.75085568
37.457001 -17.358999 0.62400001 0.036418766 0.413064 -0.61813802 0.74434054
37.82 -17.455 0.62800002 0.012727935 0.41197726 -0.62361842 0.74752074
38.013 -17.399 0.63 0.012138756 0.41289887 -0.62268358 0.74724001
38.209999 -17.344 0.63099998 0.022540305 0.4139182 -0.62026286 0.74603105
38.467999 -17.316 0.63300002 0.039110191 0.41185063 -0.62526369 0.74973679
39.041 -17.426001 0.639 0.08634463 0.40376714 -0.6443944 0.76532835
39.558998 -17.507999 0.64399999 0.078728147 0.41055465 -0.63068008 0.75664431
40.094002 -17.593 0.64999998 0.042961136 0.41166982 -0.64308691 0.76477349
40.272999 -17.597 0.65100002 0.04873395 0.41094813 -0.64486307 0.76622564
40.786999 -17.669001 0.65600002 0.066955343 0.39959356 -0.67691267 0.78890353
40.814999 -17.528999 0.65600002 0.05118176 0.40192619 -0.67504251 0.78730339
36.136002 -17.455999 0.333 0.045067072 0.42001563 -0.59343457 0.72842896
36.414001 -17.448999 0.33399999 0.05399802 0.41914004 -0.58976507 0.725546
36.717999 -17.454 0.33500001 0.051840574 0.41723242 -0.59161448 0.72579479
37.172001 -17.527 0.336 0.051254332 0.41673636 -0.59328431 0.72683042
37.342999 -17.464001 0.33700001 0.047426175 0.41462815 -0.60705411 0.73666847
37.848999 -17.556999 0.338 0.011554101 0.41424137 -0.61538005 0.74190432
37.810001 -17.393999 0.338 0.0116373 0.41438055 -0.61539853 0.74199867
38.479 -17.629 0.34 0.041425191 0.41087797 -0.6268543 0.75065511
39.166 -17.796 0.34200001 0.07514786 0.41214532 -0.61975962 0.7480728
38.901001 -17.528 0.34099999 0.067777239 0.40984035 -0.63091886 0.75539488
39.544998 -17.67 0.34299999 0.061316878 0.41433337 -0.62452829 0.75197572
39.637001 -17.561001 0.34299999 0.056596838 0.41631317 -0.61843687 0.74765235
40.758999 -17.906 0.347 0.076286808 0.40718842 -0.65171123 0.77223676
41.220001 -17.955 0.34900001 0.085007168 0.40702939 -0.65226537 0.77353042
41.630001 -18.056 0.34999999 0.064325519 0.41321981 -0.64109182 0.7654326
42.044998 -18.079 0.35100001 0.097144477 0.41640505 -0.62313235 0.75572753
42.469002 -18.104 0.352 0.094954416 0.42011312 -0.61100447 0.74755454
35.955002 -17.441999 0.145 0.01025961 0.42861158 -0.57064039 0.71375316
36.327 -17.481001 0.14399999 0.043746792 0.42254663 -0.57476169 0.71471006
36.629002 -17.556 0.14399999 0.041175045 0.42071235 -0.57458735 0.71333367
36.948002 -17.566 0.14300001 0.048152119 0.41957629 -0.57949746 0.71706361
36.664001 -17.290001 0.14399999 0.040356763 0.42293692 -0.57478255 0.71475822
37.681999 -17.625 0.142 0.02183279 0.41883028 -0.59280443 0.72616291
38.042 -17.648001 0.141 0.01974275 0.4188166 -0.5957396 0.72849351
38.293999 -17.618 0.141 0.038031001 0.41815907 -0.59699911 0.72987074
38.473 -17.554001 0.141 0.037461936 0.41817987 -0.59826016 0.73088509
39 -17.646999 0.14 0.068712972 0.41605043 -0.60534632 0.73774225
39.52 -17.806999 0.139 0.069616593 0.41950321 -0.59783983 0.73364967
39.911999 -17.833 0.139 0.07122229 0.42118651 -0.59203184 0.73004955
39.890999 -17.673 0.139 0.071218237 0.4214116 -0.59206212 0.73020363
40.734001 -17.893 0.138 0.079548873 0.41824943 -0.61190057 0.74544144
41.148998 -17.921 0.13699999 0.082911067 0.42162162 -0.59834659 0.73665303
41.557999 -17.944 0.13600001 0.068072885 0.42449713 -0.59428543 0.73348951
42 -17.978001 0.13600001 0.080556989 0.43410406 -0.52473569 0.68577206
42.386002 -18.063999 0.13500001 0.088883586 0.43441963 -0.5139091 0.67876601
35.987 -17.469999 -0.109 0.098968342 0.42416102 -0.51091307 0.67137134
36.319 -17.490999 -0.112 0.041816268 0.42352799 -0.56947052 0.71092987
36.563 -17.466999 -0.114 0.044627592 0.42242682 -0.57165718 0.71219939
37.007999 -17.537001 -0.117 0.047504444 0.42222592 -0.56489944 0.70685416
37.325001 -17.615999 -0.119 0.05657256 0.42280746 -0.55425721 0.69940519
37.659 -17.629 -0.122 0.038578004 0.42378208 -0.56010628 0.70341921
38.055 -17.67 -0.125 0.0238251 0.42309439 -0.57269919 0.71243304
38.237 -17.608999 -0.126 0.025813581 0.42316028 -0.57440716 0.71391493
38.542999 -17.603001 -0.12800001 0.044124912 0.42216501 -0.57914734 0.71804035
39.09 -17.705 -0.132 0.071606167 0.42379367 -0.56005025 0.70596373
39.542999 -17.761 -0.13600001 0.08073651 0.42347896 -0.57165569 0.71599096
39.917999 -17.854 -0.139 0.070143573 0.42574999 -0.56646866 0.71208841
40.334 -17.889 -0.142 0.067008004 0.42462257 -0.5821901 0.72369862
40.731998 -17.913 -0.145 0.074918404 0.42754394 -0.56701225 0.7140795
41.174999 -17.954 -0.148 0.062404424 0.43201378 -0.54809117 0.7006669
41.569 -17.969999 -0.15099999 0.043789186 0.43534166 -0.46663886 0.63968092
42.035 -18.016001 -0.155 0.040687956 0.4238275 -0.37501138 0.56737888
42.469002 -18.044001 -0.15800001 0.059964947 0.42567715 -0.38625479 0.57791835
35.848 -17.457001 -0.35299999 0.10915211 0.39188737 -0.32281154 0.51932377
36.168999 -17.472 -0.35800001 0.16468582 0.3859849 -0.36252314 0.55455279
36.508999 -17.495001 -0.36199999 0.040927824 0.42765751 -0.52566558 0.67888904
36.735001 -17.462 -0.36500001 0.042323627 0.4254393 -0.54260963 0.69080758
37.203999 -17.541 -0.37099999 0.057818118 0.42478231 -0.5360654 0.68640298
37.584999 -17.577 -0.37599999 0.042296149 0.42723748 -0.5218327 0.67574418
37.921001 -17.660999 -0.38100001 0.034627184 0.42762721 -0.52449071 0.67760944
38.222 -17.655001 -0.38499999 0.030459136 0.42871544 -0.51988727 0.67454237
38.389999 -17.586 -0.38600001 0.029206216 0.42838329 -0.52759671 0.68023783
38.828999 -17.639999 -0.39199999 0.060047805 0.42904845 -0.50973314 0.66896653
39.417 -17.757 -0.40000001 0.08330474 0.42737147 -0.52974981 0.68572658
39.812 -17.785 -0.40599999 0.074831866 0.42979193 -0.52403569 0.68186092
40.202999 -17.808001 -0.41100001 0.078069955 0.43041801 -0.51842344 0.67831957
40.599998 -17.907 -0.41600001 0.074878126 0.43231142 -0.49495092 0.66141993
41.035999 -17.945 -0.42199999 0.056466844 0.43411711 -0.46609408 0.63944495
41.444 -17.969 -0.428 0.031255864 0.43288094 -0.43344954 0.61338514
41.891998 -18.007 -0.43399999 0.0097041223 0.42442101 -0.37763205 0.56818426
42.301998 -18.025 -0.43900001 0.048363976 0.41670352 -0.35016176 0.54643768
35.714001 -17.476999 -0.62900001 -0.03202096 0.27635312 -0.13181484 0.30784985
35.93 -17.513 -0.63300002 0.10589174 0.3479051 -0.23496252 0.43296468
36.207001 -17.507 -0.63800001 0.15067278 0.37075472 -0.30733645 0.50459594
36.532001 -17.523001 -0.64399999 0.041247971 0.42642531 -0.52971697 0.68127823
36.879002 -17.548 -0.65100002 0.049134299 0.42657286 -0.52283275 0.67655945
37.192001 -17.554001 -0.65700001 0.063799039 0.42577687 -0.51321894 0.66988802
37.546001 -17.577 -0.66399997 0.047619935 0.42718661 -0.47381175 0.63972932
37.945999 -17.618999 -0.67199999 0.022767879 0.42912829 -0.48936889 0.65126902
38.217999 -17.673 -0.67799997 0.010516819 0.42973232 -0.49634406 0.65661091
38.342999 -17.584999 -0.67900002 0.022933964 0.4298372 -0.49464059 0.65570974
38.751999 -17.625999 -0.68800002 0.05316804 0.42891866 -0.51998401 0.67615193
39.403999 -17.773001 -0.70099998 0.080325067 0.42870307 -0.5042268 0.66669565
39.82 -17.811001 -0.70999998 0.068775311 0.43136165 -0.50309569 0.66626436
40.198002 -17.829 -0.71700001 0.071067169 0.43178418 -0.50304604 0.66674089
40.631001 -17.868 -0.72600001 0.062681273 0.43297011 -0.46638149 0.6394558
41.011002 -17.882 -0.73299998 0.054858126 0.43425116 -0.46438181 0.63814884
41.342999 -17.950001 -0.74000001 0.011757199 0.4328711 -0.43134433 0.61120665
41.601002 -17.907 -0.745 -0.0032040328 0.42994991 -0.41175768 0.59532475
41.867001 -17.865999 -0.74900001 -0.0019885004 0.41841716 -0.35713041 0.55010819
42.041 -17.785 -0.75199997 -0.024758775 0.40615618 -0.3228997 0.51946133
42.250999 -17.716999 -0.75599998 -0.0034549665 0.40257773 -0.3090148 0.50751448
42.471001 -17.653 -0.759 0.021041999 0.37934852 -0.25813609 0.45932811
42.602001 -17.551001 -0.76099998 0.032250855 0.34466651 -0.20191988 0.40075773
