# .PCD v0.7 - Point Cloud Data file format
VERSION 0.7
FIELDS x y z normal_x normal_y normal_z curvature
SIZE 4 4 4 4 4 4 4
TYPE F F F F F F F
COUNT 1 1 1 1 1 1 1
WIDTH 660
HEIGHT 1
VIEWPOINT 0 0 0 1 0 0 0
POINTS 660
DATA ascii
9.257 20.663 0.97500002 0.090340741 0.5836904 -0.50015002 0.77395475
9.1879997 20.683001 0.97399998 0.091208197 0.58359468 -0.49954298 0.77359223
9.1470003 20.679001 0.97399998 0.092185378 0.5831942 -0.49928096 0.77323675
9.0780001 20.698 0.97299999 0.092251636 0.58314663 -0.49900988 0.7730338
9.0019999 20.701 0.972 0.092693537 0.58289534 -0.49972937 0.7733618
8.9350004 20.725 0.972 0.093252212 0.58289117 -0.49316511 0.7692008
8.8540001 20.715 0.97100002 0.093465336 0.58261192 -0.49211177 0.76834005
8.7860003 20.737 0.97100002 0.09279412 0.58274764 -0.49239287 0.76854163
8.71 20.739 0.97000003 0.092162222 0.58271825 -0.4918001 0.76806366
8.677 20.75 0.97000003 0.091624595 0.58279854 -0.4903731 0.7671473
8.6020002 20.754 0.96899998 0.091765143 0.58268064 -0.49405012 0.76943034
8.5349998 20.777 0.96899998 0.090569928 0.58290303 -0.4938395 0.76932198
8.4580002 20.774 0.96799999 0.089983292 0.58278078 -0.49596098 0.77052432
8.3929996 20.802 0.96799999 0.090360954 0.58279836 -0.49789029 0.77182496
8.3199997 20.808001 0.96700001 0.089282878 0.58287996 -0.49929035 0.77266502
8.2469997 20.815001 0.96600002 0.089135945 0.58276999 -0.50040722 0.77328742
8.21 20.816999 0.96600002 0.089354388 0.58265191 -0.5018366 0.77414954
8.1359997 20.822001 0.96499997 0.089534327 0.58248603 -0.50378132 0.77530766
8.0690002 20.844 0.96499997 0.089440793 0.58247411 -0.50568801 0.77652824
7.993 20.841 0.96399999 0.089457706 0.58212805 -0.50674373 0.77695876
7.927 20.865 0.96399999 0.089851551 0.58191478 -0.51015979 0.77907711
7.8559999 20.874001 0.963 0.089815468 0.58174312 -0.51240933 0.78041989
7.7839999 20.882 0.963 0.090601057 0.58126056 -0.51374 0.78102577
7.7179999 20.906 0.963 0.090590194 0.58122087 -0.51531911 0.78203458
7.6789999 20.9 0.96200001 0.090407804 0.58114243 -0.5134303 0.78071171
7.6090002 20.912001 0.96200001 0.090429857 0.58101708 -0.5145964 0.7813884
7.5339999 20.912001 0.96100003 0.090321019 0.58077204 -0.51500618 0.78146362
7.4699998 20.938999 0.96100003 0.08977703 0.58083814 -0.51540059 0.78171009
7.3969998 20.941999 0.95999998 0.089908399 0.58053738 -0.5147897 0.78109896
7.3239999 20.945999 0.95899999 0.089302979 0.58012044 -0.51474071 0.78068733
7.2579999 20.966999 0.95899999 0.088620901 0.58023524 -0.51492625 0.78081727
7.2199998 20.965 0.95899999 0.088017322 0.58022994 -0.51525694 0.78096324
7.1529999 20.983999 0.95899999 0.086659975 0.58035898 -0.51676637 0.78190404
7.0809999 20.989 0.958 0.086737819 0.58022785 -0.5169943 0.78196609
7.0170002 21.014999 0.958 0.087270409 0.58017027 -0.51708859 0.78204495
6.9419999 21.011 0.95700002 0.086598054 0.57990003 -0.51803517 0.78239614
6.8730001 21.025 0.95700002 0.086094834 0.57993072 -0.51770544 0.78214508
6.796 21.011999 0.95599997 0.086275242 0.57958335 -0.5174861 0.78176218
6.4180002 21.08 0.954 0.086509846 0.57888198 -0.51913726 0.78236294
6.355 21.110001 0.95499998 0.086206511 0.57906681 -0.51757079 0.78142786
6.2810001 21.105 0.954 0.086082511 0.5784623 -0.51732785 0.78080529
6.2490001 21.117001 0.954 0.086551897 0.57845157 -0.51626897 0.78014815
6.1760001 21.113001 0.95300001 0.086328201 0.57780534 -0.51370192 0.77794677
6.1139998 21.148001 0.954 0.086183093 0.57812864 -0.51266891 0.7774893
6.039 21.138 0.95200002 0.086704485 0.5773626 -0.50429809 0.77148026
5.9710002 21.153 0.95200002 0.08692725 0.5770455 -0.49993569 0.76842278
5.902 21.16 0.95200002 0.088240832 0.57639682 -0.49602398 0.76554525
5.836 21.181999 0.95200002 0.091072172 0.57570457 -0.49046975 0.76176798
5.7969999 21.17 0.95099998 0.090375826 0.57519233 -0.48952293 0.7606883
5.7309999 21.188999 0.95099998 0.090248801 0.57498181 -0.48882425 0.76006448
5.658 21.183001 0.95099998 0.088403791 0.57435203 -0.48870835 0.7592966
5.5949998 21.214001 0.95099998 0.087961026 0.57450891 -0.48789158 0.75883847
5.5250001 21.218 0.95099998 0.086395733 0.57437795 -0.48681769 0.75786918
5.4559999 21.226 0.94999999 0.082973696 0.57457 -0.48747396 0.7580542
5.388 21.240999 0.94999999 0.083179809 0.57447243 -0.49128208 0.76045752
5.3530002 21.24 0.94999999 0.082826369 0.57436508 -0.49254167 0.76115227
5.283 21.247 0.949 0.076806158 0.57489443 -0.48901245 0.75864089
5.2179999 21.267 0.94999999 0.072537899 0.57532328 -0.48581961 0.75649142
5.1459999 21.264 0.949 0.073631734 0.57475859 -0.49129894 0.75969976
5.0819998 21.290001 0.949 0.075593255 0.57454574 -0.49069718 0.75934237
5.0100002 21.285999 0.949 0.072437868 0.57453692 -0.48616716 0.75610739
4.9439998 21.304001 0.949 0.068584673 0.57450646 -0.47359654 0.74769998
4.8740001 21.308001 0.94800001 0.072435081 0.57375312 -0.47278476 0.74697047
4.842 21.323 0.949 0.075127922 0.5732668 -0.46837348 0.74407846
4.7719998 21.323999 0.94800001 0.078307465 0.57249916 -0.46727759 0.74312562
4.7049999 21.339001 0.94800001 0.080931798 0.57186848 -0.46471825 0.74131405
4.6370001 21.35 0.94800001 0.082710907 0.57120377 -0.46216679 0.73940045
4.5689998 21.361 0.94800001 0.083308324 0.57092214 -0.46168521 0.738949
4.4990001 21.358999 0.94700003 0.083772555 0.57035995 -0.46026114 0.73767787
4.1810002 21.34 0.94400001 0.081506014 0.56856471 -0.45529556 0.73294145
4.125 21.41 0.94599998 0.082373843 0.56915826 -0.45657247 0.73429215
4.059 21.433001 0.94700003 0.084842086 0.56898928 -0.45922109 0.73609167
3.99 21.434 0.94599998 0.088708043 0.56836259 -0.46361801 0.73881447
3.924 21.452 0.94700003 0.096038118 0.56728125 -0.46718028 0.74114019
3.888 21.448 0.94599998 0.09886089 0.56648982 -0.46737424 0.74102825
3.822 21.469999 0.94700003 0.085588448 0.56918728 -0.48259839 0.75113297
3.753 21.469999 0.94599998 0.088974826 0.56840086 -0.48325747 0.75135463
3.687 21.49 0.94599998 0.097356603 0.5670839 -0.4869805 0.75379866
3.6170001 21.488001 0.94599998 0.10394765 0.56563479 -0.48781109 0.75412697
3.55 21.503 0.94599998 0.09311486 0.56749791 -0.49875024 0.76123327
11.265 20.341 0.84799999 0.091401845 0.58395416 -0.51332009 0.78285009
11.182 20.341 0.84600002 0.10916357 0.58062541 -0.51812524 0.78580934
11.025 20.205999 0.84100002 0.10701424 0.58006895 -0.51693624 0.78431827
11.068 20.362 0.84500003 0.10715804 0.5811528 -0.5167343 0.78500682
10.984 20.358 0.84399998 0.10600782 0.58133268 -0.51599813 0.78449947
10.912 20.378 0.84399998 0.10461749 0.58155328 -0.51728451 0.78532308
10.836 20.389 0.84299999 0.10316081 0.58198416 -0.51463056 0.78370428
10.765 20.410999 0.84299999 0.1026293 0.58211875 -0.51476902 0.7838254
10.683 20.410999 0.84200001 0.10376865 0.58198625 -0.51398623 0.7833631
10.614 20.436001 0.84100002 0.10464358 0.58185196 -0.51397133 0.78336996
10.568 20.424 0.84100002 0.10419641 0.58167458 -0.51404548 0.78322726
10.501 20.452 0.83999997 0.10393506 0.58155203 -0.51173717 0.78158826
10.42 20.452 0.83899999 0.10571907 0.58106846 -0.50683254 0.77826494
10.349 20.473 0.83899999 0.10486767 0.58123231 -0.50699073 0.77837509
10.269 20.473 0.838 0.10606326 0.58102995 -0.49846828 0.77286214
10.202 20.5 0.838 0.10700385 0.58104086 -0.49123695 0.76835668
10.123 20.503 0.83700001 0.1053279 0.58107722 -0.48347664 0.76321322
10.052 20.52 0.83600003 0.1030125 0.58144855 -0.47900265 0.76035357
10.007 20.511 0.83600003 0.10182934 0.58142042 -0.47743481 0.75918573
9.9399996 20.537001 0.83600003 0.10218014 0.58109784 -0.47007143 0.75437564
9.8579998 20.532 0.83399999 0.099011689 0.5814597 -0.46915394 0.7536605
9.7919998 20.559 0.83399999 0.095889531 0.58197695 -0.46790445 0.75287884
9.7180004 20.57 0.83399999 0.092688911 0.58233637 -0.46524283 0.75110435
9.6450005 20.584 0.833 0.090154588 0.58266318 -0.46376887 0.75013721
9.5670004 20.584999 0.83200002 0.087764874 0.58293498 -0.46449143 0.75051188
9.533 20.597 0.83200002 0.085679501 0.58337122 -0.46520412 0.75105119
9.4530001 20.594 0.83099997 0.086248189 0.58331585 -0.46897525 0.75341487
9.3870001 20.620001 0.83099997 0.086906061 0.58369493 -0.47813916 0.75951922
9.3100004 20.624001 0.82999998 0.090465128 0.58289778 -0.4794322 0.7601375
9.2440004 20.649 0.82999998 0.09119162 0.5830006 -0.48587003 0.76437902
9.1700001 20.658001 0.82999998 0.092473656 0.58251941 -0.47938818 0.76006132
9.0959997 20.667 0.829 0.095815308 0.58178467 -0.47759542 0.7587828
9.0530005 20.655001 0.82800001 0.095640436 0.58166397 -0.4784458 0.75920385
8.9840002 20.676001 0.82800001 0.096556768 0.58143055 -0.47314745 0.75581294
8.9119997 20.686001 0.82800001 0.097069509 0.58105165 -0.467632 0.75214571
8.8369999 20.691999 0.82700002 0.096934751 0.58063012 -0.46071562 0.74752033
8.7679996 20.709999 0.82700002 0.095087349 0.58091205 -0.4602882 0.7472387
8.6960001 20.721001 0.82599998 0.093551815 0.58106959 -0.45990476 0.7469312
8.6280003 20.740999 0.82599998 0.091776125 0.58134437 -0.45934981 0.74658316
8.552 20.742001 0.82499999 0.08951249 0.5815683 -0.45903647 0.74628991
8.5159998 20.747999 0.82499999 0.087587245 0.58192551 -0.46096545 0.7475279
8.4370003 20.742001 0.824 0.084791236 0.5823074 -0.46406329 0.74941725
8.3739996 20.774 0.824 0.083817959 0.58289629 -0.47008702 0.75350869
8.2980003 20.771999 0.82300001 0.084665418 0.58291674 -0.48090747 0.76041579
8.2309999 20.794001 0.82300001 0.084940262 0.58302039 -0.48762539 0.76479161
8.1560001 20.796 0.82200003 0.085597888 0.58284068 -0.49458912 0.76918703
8.092 20.823 0.82200003 0.085312217 0.58292216 -0.4957417 0.76995862
8.0500002 20.813 0.82200003 0.087959304 0.58217871 -0.50322866 0.77453727
7.9819999 20.830999 0.82200003 0.087781072 0.58198917 -0.50464851 0.775298
7.9120002 20.844999 0.82099998 0.087503463 0.58162272 -0.50783402 0.77706963
7.8410001 20.855 0.82099998 0.088158935 0.58125502 -0.5101909 0.77841127
7.7659998 20.853001 0.81999999 0.088505529 0.58096439 -0.51094818 0.77873027
7.7010002 20.879 0.81999999 0.08787173 0.58111078 -0.51140165 0.77906531
7.6290002 20.886 0.81999999 0.088542849 0.58080882 -0.51331538 0.78017396
7.5910001 20.882999 0.81900001 0.088813536 0.58067274 -0.51348728 0.78021652
7.5209999 20.896 0.81900001 0.089634046 0.5804792 -0.51426709 0.78067982
7.4530001 20.914 0.81900001 0.089442216 0.58030599 -0.51475227 0.7808488
7.382 20.92 0.81800002 0.088878401 0.58010614 -0.51537156 0.78104442
7.3109999 20.93 0.81800002 0.088621043 0.57977581 -0.51523197 0.78067768
7.2389998 20.936001 0.81699997 0.08650589 0.58001792 -0.51522309 0.78061438
7.1719999 20.952999 0.81699997 0.086353414 0.58003432 -0.51544839 0.78075844
7.1020002 20.964001 0.81699997 0.085371695 0.57994652 -0.51613873 0.78104126
7.0650001 20.964001 0.81599998 0.086787969 0.57962674 -0.51633012 0.7810865
6.9949999 20.972 0.81599998 0.085919023 0.57953948 -0.51705295 0.78140378
6.927 20.989 0.81599998 0.085783839 0.57959169 -0.51713532 0.7814821
6.868 21.031 0.81699997 0.085590377 0.57987297 -0.51704723 0.78161126
6.7810001 20.988001 0.815 0.085994378 0.57906133 -0.51681054 0.78089702
6.4699998 21.038 0.81300002 0.086340874 0.57801318 -0.51699859 0.78028297
6.408 21.073 0.81400001 0.087692305 0.57813299 -0.51471829 0.77901387
6.336 21.073999 0.81300002 0.08810994 0.57766736 -0.5112651 0.77643734
6.2649999 21.077 0.81300002 0.088893957 0.57712519 -0.50917113 0.7747457
6.2010002 21.104 0.81300002 0.089207336 0.57716429 -0.5060252 0.7727471
6.1609998 21.089001 0.81199998 0.088969901 0.57665926 -0.50460923 0.77141559
6.0949998 21.112 0.81199998 0.0901554 0.57642519 -0.49984586 0.76827073
6.0229998 21.110001 0.81199998 0.091007054 0.57561713 -0.49709913 0.76597971
5.9559999 21.127001 0.81199998 0.092222221 0.57505769 -0.48673698 0.75901854
5.8870001 21.134001 0.81099999 0.092922762 0.57427478 -0.48248342 0.75578862
5.822 21.16 0.81199998 0.09320882 0.57408106 -0.47906393 0.75349796
5.7509999 21.160999 0.81099999 0.092128724 0.57348192 -0.47690496 0.75153679
5.6820002 21.171 0.81099999 0.090082839 0.57351142 -0.47759026 0.75174648
5.6459999 21.166 0.81099999 0.089673556 0.57326841 -0.47809863 0.75183529
5.5809999 21.190001 0.81099999 0.086967595 0.57371867 -0.47868776 0.75223559
5.5089998 21.188 0.81 0.084512271 0.57371247 -0.47917295 0.75225997
5.4450002 21.216999 0.81099999 0.08374317 0.57393557 -0.48192802 0.75410181
5.3730001 21.212 0.81 0.082949571 0.57362336 -0.48248723 0.75413418
5.3070002 21.231001 0.81 0.07644476 0.57419527 -0.47688317 0.75030768
5.2340002 21.224001 0.80900002 0.071921527 0.57414782 -0.47319835 0.74748588
5.2030001 21.24 0.81 0.071059689 0.57435358 -0.47527316 0.74887651
5.132 21.237 0.80900002 0.073426157 0.57372117 -0.47605082 0.74911398
5.066 21.259001 0.80900002 0.071543805 0.57363892 -0.46952057 0.74473459
4.9980001 21.268999 0.80900002 0.070736729 0.57335985 -0.46467224 0.74139428
4.9310002 21.282 0.80900002 0.074518144 0.57256854 -0.46145269 0.7391389
4.8610001 21.285999 0.80900002 0.078996487 0.57171935 -0.46371287 0.74036008
4.7940001 21.301001 0.80900002 0.082295001 0.57115668 -0.46382508 0.74035537
4.7249999 21.305 0.80800003 0.083644003 0.57067764 -0.46247998 0.73929495
4.6929998 21.322001 0.80900002 0.082345165 0.57077312 -0.46021008 0.73780489
4.3449998 21.332001 0.80699998 0.081326112 0.56901616 -0.45638481 0.73394847
4.2839999 21.371 0.80800003 0.080035582 0.5692749 -0.4549928 0.73314261
4.2490001 21.372 0.80699998 0.078333825 0.56926048 -0.45354983 0.73205268
4.1810002 21.382999 0.80699998 0.076824307 0.56928468 -0.45336553 0.73179734
4.1149998 21.4 0.80699998 0.075893559 0.56937534 -0.45402211 0.73217767
4.0469999 21.409 0.80699998 0.075978778 0.56914055 -0.45450205 0.73230177
3.9790001 21.42 0.80699998 0.076989293 0.56908381 -0.45769063 0.73434627
3.9119999 21.434 0.80699998 0.084299348 0.56827033 -0.46313417 0.73792332
3.8440001 21.440001 0.80699998 0.094139561 0.5666731 -0.46548367 0.7393617
3.8099999 21.444 0.80699998 0.093389317 0.56669611 -0.46504539 0.73900831
3.7420001 21.452 0.80699998 0.07663288 0.56971079 -0.48163658 0.74994451
3.674 21.464001 0.80699998 0.083498076 0.56865883 -0.48592293 0.75263929
3.6059999 21.468 0.80699998 0.090364814 0.56751573 -0.4892047 0.75469273
11.335 20.357 0.73900002 -0.00079449825 0.58934313 -0.49626535 0.77045786
11.27 20.391001 0.73900002 0.035339609 0.58962536 -0.50025946 0.77405846
11.165 20.351999 0.73699999 0.080157183 0.58549839 -0.50703871 0.77866668
11.062 20.315001 0.73500001 0.10737006 0.58066082 -0.51580244 0.78405833
11.031 20.412001 0.73699999 0.09599667 0.58342123 -0.51123714 0.78163874
10.952 20.417999 0.736 0.10555387 0.5816468 -0.51541018 0.78428459
10.912 20.419001 0.736 0.10524963 0.58167583 -0.51541477 0.78426826
10.832 20.423 0.73500001 0.10449897 0.58177859 -0.51505417 0.78400713
10.756 20.436001 0.73400003 0.10424434 0.58188879 -0.51459968 0.78375649
10.682 20.450001 0.73400003 0.10462903 0.581801 -0.51435846 0.78358424
10.611 20.471001 0.73299998 0.10580837 0.58175421 -0.51215672 0.78226459
10.534 20.48 0.73299998 0.10722329 0.58142644 -0.50806081 0.77953792
10.461 20.497 0.73199999 0.10901517 0.58092964 -0.50313824 0.77621621
10.419 20.493 0.73199999 0.10704517 0.58105052 -0.50214976 0.775392
10.348 20.511999 0.73199999 0.1093617 0.58076423 -0.49541861 0.77115929
10.266 20.51 0.73100001 0.11245818 0.58006334 -0.48858944 0.76670724
10.191 20.521 0.73000002 0.11294264 0.57951969 -0.47206745 0.75594097
10.12 20.540001 0.73000002 0.11086889 0.57945621 -0.46265078 0.74973804
10.043 20.547001 0.72899997 0.1078233 0.57955045 -0.45761508 0.74626815
9.974 20.569 0.72899997 0.10592874 0.57949013 -0.45202965 0.74253654
9.9320002 20.563 0.72799999 0.10409202 0.57951558 -0.45041323 0.7413134
9.8579998 20.576 0.72799999 0.1017427 0.57935613 -0.44417915 0.73708904
9.7860003 20.591 0.72799999 0.09809307 0.57982194 -0.44288456 0.73618102
9.7110004 20.6 0.727 0.092502832 0.58078021 -0.44381854 0.73677492
9.6379995 20.612 0.727 0.088367075 0.58133078 -0.44343495 0.73647046
9.5670004 20.629 0.72600001 0.084783375 0.58183801 -0.44302937 0.73620558
9.493 20.639 0.72600001 0.083551534 0.58233643 -0.44626915 0.73841226
9.4200001 20.650999 0.72500002 0.083757751 0.5828802 -0.45248911 0.74263787
9.3830004 20.655001 0.72500002 0.082725368 0.58291161 -0.45141387 0.7418921
9.3039999 20.653 0.72399998 0.08609236 0.58246088 -0.45574707 0.74456561
9.2349997 20.673 0.72399998 0.090169318 0.58229637 -0.46209067 0.74881732
9.1590004 20.677999 0.72299999 0.09485504 0.58144492 -0.46346739 0.74958503
9.0889997 20.694 0.72299999 0.097884983 0.58052683 -0.45784539 0.74579841
9.0170002 20.708 0.72299999 0.099480607 0.5795173 -0.44827181 0.73938102
8.9469995 20.723 0.722 0.10020637 0.57940596 -0.44813764 0.73931044
8.9020004 20.709999 0.722 0.10082678 0.57858539 -0.44282064 0.73553872
8.8310003 20.723 0.72100002 0.09960565 0.57830101 -0.43806338 0.73229289
8.7629995 20.743 0.72100002 0.095938601 0.57884401 -0.43710172 0.73165739
8.691 20.754 0.72100002 0.093114838 0.57938248 -0.43852949 0.73257256
8.618 20.764999 0.72000003 0.09009786 0.5798071 -0.43878189 0.73268235
8.5459995 20.773001 0.72000003 0.086225048 0.58045244 -0.43989307 0.73339325
8.4759998 20.791 0.72000003 0.082317285 0.58101457 -0.44046855 0.73373473
8.4399996 20.795 0.71899998 0.082035989 0.58165091 -0.44689399 0.73807985
8.3660002 20.799 0.71899998 0.080108128 0.58224326 -0.45212811 0.74151492
8.2969999 20.816 0.71899998 0.077233404 0.58307904 -0.45883968 0.74597585
8.2229996 20.820999 0.71799999 0.075038657 0.58364272 -0.465527 0.75032324
8.1529999 20.834 0.71799999 0.077221029 0.58373529 -0.47412843 0.75598133
8.085 20.854 0.71799999 0.079408497 0.58379096 -0.48489481 0.76304692
8.0109997 20.857 0.71700001 0.082724728 0.58311903 -0.49562362 0.76974928
7.941 20.870001 0.71700001 0.084092028 0.58255666 -0.5008266 0.77283311
7.9050002 20.874001 0.71700001 0.084190398 0.58236277 -0.50167471 0.77324766
7.8340001 20.882999 0.71600002 0.08720535 0.58154434 -0.50710791 0.77650309
7.7639999 20.898001 0.71600002 0.087541282 0.58139211 -0.508708 0.77747291
7.6950002 20.913 0.71600002 0.08690507 0.58146191 -0.50943106 0.77792704
7.6209998 20.915001 0.71499997 0.087861024 0.5811277 -0.51042092 0.77843332
7.5560002 20.941 0.71499997 0.088896222 0.58101201 -0.51132083 0.77905488
7.4790001 20.931999 0.71499997 0.089541152 0.58052945 -0.51267338 0.77965766
7.4450002 20.941999 0.71399999 0.088504672 0.58057499 -0.5122993 0.77932721
7.3790002 20.962999 0.71399999 0.088511214 0.58042252 -0.51306343 0.77971703
7.3049998 20.964001 0.71399999 0.088116914 0.58010536 -0.51345569 0.77969456
7.2340002 20.972 0.71399999 0.087456532 0.58008492 -0.51322496 0.77945304
7.164 20.983 0.713 0.08696878 0.5801034 -0.5133335 0.77948374
7.0949998 20.996 0.713 0.086683489 0.58001274 -0.51314741 0.77926189
7.027 21.011999 0.713 0.08621832 0.57997489 -0.51376927 0.7795918
6.987 21.002001 0.71200001 0.085764199 0.57978749 -0.51464367 0.77997893
6.9229999 21.028 0.71200001 0.085978813 0.57984102 -0.51465249 0.78004819
6.862 21.066999 0.713 0.086221024 0.57997108 -0.51516235 0.78050804
6.4650002 21.077 0.70999998 0.08742319 0.57842785 -0.51340038 0.77833253
6.3959999 21.087999 0.70999998 0.089280456 0.57794362 -0.50969619 0.7757448
6.3280001 21.101999 0.70999998 0.090448491 0.57758772 -0.50703853 0.77387118
6.2579999 21.108 0.70999998 0.091924421 0.57703805 -0.50155163 0.77005005
6.1919999 21.129999 0.70999998 0.092793427 0.57682317 -0.49677128 0.76688808
6.1199999 21.132 0.70899999 0.092951059 0.57623821 -0.49287194 0.76394576
6.0510001 21.141001 0.70899999 0.093290202 0.57576334 -0.48865044 0.76091111
6.0159998 21.145 0.70899999 0.094679847 0.57524794 -0.48746374 0.75993121
5.9489999 21.16 0.70899999 0.095698252 0.57467324 -0.48419365 0.75752956
5.881 21.174999 0.70899999 0.095215864 0.57433623 -0.47910872 0.7539717
5.8130002 21.184999 0.70899999 0.094935916 0.57370704 -0.47513658 0.75093764
5.743 21.191999 0.708 0.092271022 0.57354665 -0.47415909 0.74986434
5.6729999 21.198 0.708 0.089091092 0.57361019 -0.4728542 0.74870354
5.605 21.209999 0.708 0.087270521 0.57353312 -0.4715789 0.74762493
5.5359998 21.219999 0.708 0.08501859 0.57367504 -0.47272089 0.74819529
5.5029998 21.226999 0.708 0.084609754 0.5737918 -0.47462016 0.7494399
5.434 21.238001 0.708 0.083667479 0.57374847 -0.47597209 0.75015795
5.3660002 21.249001 0.70700002 0.082831457 0.57371807 -0.47698846 0.7506873
5.2969999 21.257999 0.70700002 0.076546609 0.57414287 -0.47337866 0.74805534
5.23 21.271 0.70700002 0.07689549 0.57391357 -0.47393152 0.74826515
5.1599998 21.275 0.70700002 0.074020356 0.57386786 -0.47124472 0.74624056
5.092 21.288 0.70700002 0.075908065 0.57347 -0.47057942 0.74570429
5.0570002 21.288 0.70700002 0.073004402 0.57318908 -0.46303335 0.74045616
4.9889998 21.299999 0.70700002 0.077570133 0.57259226 -0.46465471 0.74147356
4.9219999 21.315001 0.70700002 0.076199785 0.57239825 -0.46011603 0.73834473
4.8540001 21.325001 0.70599997 0.079155661 0.57172489 -0.45907304 0.73748428
4.5349998 21.311001 0.70499998 0.082571886 0.56911159 -0.45496443 0.73327947
4.4790001 21.378 0.70599997 0.082652934 0.56956023 -0.45271182 0.73224199
4.4109998 21.389999 0.70599997 0.082211412 0.56928033 -0.45142573 0.73117983
4.3439999 21.403999 0.70599997 0.080310352 0.56944573 -0.45202529 0.73146772
4.2779999 21.421 0.70599997 0.079018243 0.56962329 -0.45287263 0.7319892
4.2069998 21.415001 0.70499998 0.077124029 0.56954777 -0.45330811 0.73199797
4.1389999 21.427999 0.70499998 0.074930117 0.56975579 -0.4543471 0.73257589
4.105 21.431 0.70499998 0.074005991 0.56969982 -0.45378274 0.73208851
4.0380001 21.447001 0.70499998 0.073812887 0.56994367 -0.45794055 0.7348426
3.9679999 21.445999 0.70499998 0.074073523 0.56959784 -0.45915297 0.73535705
3.902 21.466 0.70499998 0.074312337 0.56953061 -0.45936766 0.73546314
3.8340001 21.475 0.70499998 0.082391508 0.56846094 -0.46279725 0.73764324
3.766 21.483 0.70499998 0.067572527 0.57093197 -0.4781673 0.74777895
3.6989999 21.5 0.70499998 0.07161402 0.57040513 -0.48043111 0.74920267
3.664 21.497999 0.70499998 0.077223748 0.56964463 -0.48299405 0.75082743
3.5929999 21.488001 0.704 0.085665874 0.56821096 -0.48694766 0.75320673
11.277 20.301001 0.56099999 0.0010614078 0.58853388 -0.50405079 0.77488095
11.202 20.315001 0.56099999 0.027433623 0.58887208 -0.5020873 0.77434784
11.053 20.194 0.55800003 0.083013669 0.58376479 -0.50537926 0.77658272
11.049 20.34 0.56 0.065492615 0.58682418 -0.50171757 0.77483702
10.976 20.357 0.56 0.085515738 0.58454651 -0.50461304 0.77694398
10.898 20.365 0.55900002 0.096047662 0.58299708 -0.50524199 0.77741891
10.827 20.386 0.55900002 0.10358486 0.58185256 -0.50553668 0.77772075
10.782 20.379 0.55800003 0.10516476 0.58154994 -0.50434393 0.77693164
10.708 20.395 0.55800003 0.10639788 0.58121192 -0.50423896 0.77677846
10.634 20.409 0.55800003 0.10861716 0.58058208 -0.50215423 0.77526259
10.556 20.415001 0.55699998 0.11089692 0.57986581 -0.49846536 0.77266437
10.483 20.431 0.55699998 0.11362926 0.57931292 -0.49322641 0.76927716
10.409 20.444 0.55699998 0.11723781 0.57851499 -0.48828283 0.76605773
10.335 20.459 0.55599999 0.12100805 0.57756585 -0.47902343 0.76005834
10.264 20.476999 0.55599999 0.12311694 0.57685494 -0.47223866 0.75559825
10.22 20.469999 0.55599999 0.12360868 0.57645488 -0.46842414 0.75299436
10.145 20.48 0.55500001 0.12262979 0.57624096 -0.46022266 0.74759388
10.076 20.503 0.55500001 0.11561352 0.5774436 -0.45593226 0.74476963
9.9989996 20.507999 0.55500001 0.11196789 0.5773226 -0.44700736 0.73868382
9.9280005 20.525999 0.55500001 0.10825261 0.57757807 -0.44294128 0.73587501
9.8500004 20.530001 0.55400002 0.10354553 0.57818246 -0.44083056 0.73440331
9.7799997 20.549 0.55400002 0.097930454 0.57906848 -0.44045576 0.73410624
9.7349997 20.539 0.55299997 0.094379731 0.57944852 -0.43959391 0.73342413
9.6610003 20.547001 0.55299997 0.090190955 0.57979769 -0.43758404 0.73196965
9.5909996 20.566999 0.55299997 0.087677605 0.58046252 -0.44008851 0.73369068
9.5200005 20.584 0.55299997 0.084315836 0.58079457 -0.43973008 0.73334444
9.4420004 20.584999 0.55199999 0.084837593 0.58073366 -0.44337165 0.73554569
9.3760004 20.611 0.55199999 0.086303696 0.58045411 -0.44116727 0.73416883
9.302 20.620001 0.55199999 0.087882757 0.57995558 -0.43903992 0.73268545
9.257 20.607 0.551 0.089883551 0.57899129 -0.43553352 0.73006809
9.191 20.632999 0.551 0.092831828 0.57857859 -0.43503013 0.7298097
9.1160002 20.638 0.551 0.093864843 0.5783394 -0.43454456 0.72946286
9.0430002 20.65 0.551 0.09717457 0.57766169 -0.43348321 0.7287274
8.9720001 20.663 0.55000001 0.10039056 0.57760757 -0.43744311 0.73148155
8.8979998 20.671 0.55000001 0.10116638 0.5770666 -0.43434438 0.7293117
8.8299999 20.690001 0.55000001 0.10035793 0.5770722 -0.43272603 0.72824162
8.7539997 20.694 0.55000001 0.096216559 0.57790583 -0.43437308 0.72932351
8.7189999 20.700001 0.54900002 0.09472812 0.57802808 -0.43386686 0.7289241
8.6470003 20.712 0.54900002 0.090335406 0.57892358 -0.4356361 0.73013133
8.5749998 20.723 0.54900002 0.086497225 0.57950187 -0.43617788 0.73044872
8.5039997 20.735001 0.54900002 0.081548572 0.58025008 -0.43726197 0.7311213
8.4300003 20.739 0.54799998 0.076247796 0.58111596 -0.44008011 0.73292559
8.3629999 20.761999 0.54799998 0.075148955 0.58234131 -0.45127904 0.74055493
8.2939997 20.777 0.54799998 0.070846982 0.58277863 -0.45174289 0.74075764
8.2530003 20.77 0.54799998 0.070867792 0.58300942 -0.45778781 0.74464214
8.1829996 20.784 0.54799998 0.069986746 0.58344078 -0.46589866 0.74990857
8.1099997 20.791 0.54699999 0.068162419 0.58351296 -0.47030121 0.75254017
8.0389996 20.799999 0.54699999 0.069296695 0.58348387 -0.47669098 0.75663054
7.967 20.809999 0.54699999 0.073770136 0.58290231 -0.48538798 0.76211458
7.8990002 20.827999 0.54699999 0.077947356 0.58239001 -0.49190459 0.76630545
7.829 20.839001 0.546 0.081959248 0.58174324 -0.49780655 0.77003497
7.7930002 20.841999 0.546 0.083216794 0.58148873 -0.49900553 0.77075332
7.723 20.855 0.546 0.084584586 0.58126038 -0.50156671 0.77239066
7.652 20.865999 0.546 0.085321844 0.58110869 -0.50248587 0.77295482
7.5799999 20.871 0.54500002 0.085836127 0.58085734 -0.50405145 0.77384168
7.5089998 20.879999 0.54500002 0.086014375 0.58072442 -0.50429076 0.77391762
7.4400001 20.893999 0.54500002 0.087236241 0.58029479 -0.50532317 0.77440536
7.3699999 20.906 0.54500002 0.087468505 0.58016986 -0.50477141 0.77397799
7.3010001 20.917999 0.54500002 0.08809384 0.57980436 -0.505045 0.77395356
7.2659998 20.924 0.54500002 0.087556668 0.57980174 -0.5050174 0.77387261
7.197 20.937 0.54400003 0.086640827 0.57977158 -0.50559956 0.77412701
7.1240001 20.938999 0.54400003 0.085765243 0.5796293 -0.50625551 0.77435166
7.0539999 20.948 0.54400003 0.085412949 0.57961124 -0.50756502 0.77515596
6.9829998 20.955999 0.54400003 0.085730284 0.57925057 -0.50803781 0.77523112
6.9169998 20.976 0.54400003 0.085958503 0.57922751 -0.50856692 0.77558607
6.8610001 21.030001 0.54400003 0.085322209 0.57971799 -0.50857556 0.77588785
6.4619999 21.031 0.542 0.090071976 0.57700318 -0.50446326 0.77170515
6.395 21.049 0.542 0.09298183 0.57651043 -0.49990684 0.76871103
6.3210001 21.044001 0.542 0.094421595 0.57557613 -0.49678698 0.76615965
6.289 21.058001 0.542 0.094361536 0.57556921 -0.49468428 0.76478529
6.2220001 21.073999 0.542 0.09739469 0.57490426 -0.48762959 0.76012051
6.152 21.082001 0.542 0.09750855 0.5742135 -0.48423797 0.75744009
6.0819998 21.087999 0.542 0.098661594 0.57335579 -0.47935569 0.75382549
6.0139999 21.099001 0.54100001 0.098912992 0.57273012 -0.47576007 0.7511
5.9450002 21.110001 0.54100001 0.098900281 0.57216299 -0.47217897 0.74840146
5.8779998 21.125 0.54100001 0.099955842 0.57135832 -0.46477827 0.74327677
5.842 21.124001 0.54100001 0.097444944 0.57143432 -0.46501359 0.74314892
5.7729998 21.135 0.54100001 0.094186135 0.57165217 -0.46492445 0.74284047
5.7049999 21.146999 0.54100001 0.091258578 0.5719704 -0.4651821 0.74288136
5.6370001 21.157 0.54100001 0.087977067 0.57223392 -0.46623015 0.74334526
5.5689998 21.171 0.54100001 0.086073928 0.57236886 -0.46573579 0.74291635
5.5019999 21.184 0.54100001 0.084210016 0.57256413 -0.46731311 0.74384314
5.4320002 21.188 0.54000002 0.082845762 0.572245 -0.46619415 0.74274141
5.3979998 21.195 0.54000002 0.082039438 0.57222497 -0.46539125 0.74213266
5.3299999 21.208 0.54000002 0.077660158 0.57240719 -0.46118024 0.73916727
5.2610002 21.212999 0.54000002 0.077370733 0.57222289 -0.46066189 0.73867083
5.1939998 21.226999 0.54000002 0.07655371 0.57195455 -0.45735645 0.73632014
5.125 21.236 0.54000002 0.077970959 0.57145417 -0.45611253 0.73530811
5.0599999 21.259001 0.54000002 0.074727558 0.57135981 -0.45017484 0.73122746
4.987 21.25 0.54000002 0.077169798 0.5707249 -0.45224634 0.73226279
4.9159999 21.243999 0.53899997 0.07690417 0.57002121 -0.44789976 0.72900802
3.5610001 21.240999 0.53500003 -0.17388478 0.53042656 -0.42855346 0.70373738
11.278 20.319 0.442 -0.0051518735 0.58835173 -0.49654707 0.76989824
11.199 20.326 0.442 0.02251246 0.58889323 -0.49498543 0.76961851
11.041 20.188999 0.44 0.062755957 0.58566475 -0.49826851 0.77150047
11.043 20.344999 0.44100001 0.058085263 0.58746159 -0.49616295 0.77114379
10.976 20.374001 0.44100001 0.072249144 0.58625847 -0.49764347 0.77237815
10.901 20.388 0.44100001 0.090032816 0.58401358 -0.5007056 0.77452171
10.82 20.389999 0.44100001 0.098953545 0.5826019 -0.50152391 0.77507615
10.78 20.391001 0.44 0.10591862 0.5813517 -0.50225824 0.77553326
10.698 20.391001 0.44 0.10765129 0.58069855 -0.50064945 0.77424127
10.628 20.414 0.44 0.11106075 0.57998085 -0.49773619 0.77230406
10.556 20.431 0.44 0.11586723 0.57885766 -0.49326104 0.76929051
10.477 20.436001 0.43900001 0.12263615 0.57722872 -0.48656261 0.76483709
10.406 20.455999 0.43900001 0.12613212 0.57630014 -0.47772056 0.75911009
10.332 20.469 0.43900001 0.1304843 0.5749985 -0.47029209 0.75420427
10.256 20.478001 0.43900001 0.13217227 0.57418132 -0.46325675 0.74950689
10.22 20.487 0.43900001 0.13136739 0.57413757 -0.45940456 0.74695641
10.142 20.49 0.43799999 0.12777112 0.57433927 -0.45180362 0.74183393
10.068 20.502001 0.43799999 0.12023504 0.57573807 -0.44836879 0.73957109
9.9940004 20.514 0.43799999 0.11552972 0.57604426 -0.44239861 0.73545265
9.9239998 20.535 0.43799999 0.11087739 0.57600337 -0.43399122 0.72967255
9.8509998 20.548 0.43799999 0.1054585 0.57656622 -0.4303261 0.7271387
9.7740002 20.552999 0.43700001 0.098858804 0.57761598 -0.43032849 0.72704601
9.7329998 20.549 0.43700001 0.095902011 0.57807177 -0.43074027 0.72725606
9.6619997 20.566 0.43700001 0.092232883 0.57847017 -0.42906755 0.72610855
9.5909996 20.584 0.43700001 0.088118665 0.57930654 -0.43120039 0.72752643
9.5129995 20.584999 0.43599999 0.086786322 0.57913953 -0.43161267 0.72747785
9.4440002 20.604 0.43599999 0.088374153 0.57859492 -0.42888787 0.7256217
9.3719997 20.618999 0.43599999 0.0877316 0.57870513 -0.42891616 0.72564834
9.3000002 20.632 0.43599999 0.089077309 0.57811028 -0.42619532 0.72373247
9.2629995 20.635 0.43599999 0.091135882 0.57798684 -0.42841798 0.72520095
9.191 20.648001 0.43599999 0.094073124 0.57760155 -0.42894644 0.72558141
9.1149998 20.653 0.435 0.093438514 0.57763028 -0.42874411 0.72540265
9.0430002 20.665001 0.435 0.096608952 0.57708347 -0.42862603 0.72531301
8.9709997 20.677 0.435 0.096979305 0.57698739 -0.42827266 0.72507715
8.8950005 20.679001 0.435 0.097212248 0.57690817 -0.42840698 0.72512466
8.8210001 20.687 0.435 0.097547486 0.57660079 -0.42665422 0.72389072
8.7519999 20.705 0.43399999 0.095568061 0.57677138 -0.42530087 0.72296566
8.7119999 20.700001 0.43399999 0.093126118 0.57742178 -0.42787361 0.72468215
8.6440001 20.719999 0.43399999 0.087597206 0.57828194 -0.42788982 0.72468817
8.5740004 20.736 0.43399999 0.081199482 0.57921141 -0.42819411 0.72486514
8.5 20.740999 0.43399999 0.077871308 0.58019137 -0.43352333 0.72844249
8.4329996 20.764 0.43399999 0.073845036 0.58127236 -0.43853554 0.73187709
8.3579998 20.766001 0.433 0.069235519 0.58205861 -0.44257331 0.73447734
8.2869997 20.777 0.433 0.064656988 0.58252561 -0.44428042 0.73546022
8.2519999 20.783001 0.433 0.063348942 0.58305556 -0.44978827 0.73910511
8.1750002 20.781 0.433 0.064064935 0.58348942 -0.46303868 0.74764234
8.1070004 20.799 0.433 0.063314535 0.58382493 -0.46970311 0.75198489
8.0389996 20.816999 0.433 0.063869596 0.58392137 -0.47671235 0.75650394
7.967 20.825001 0.433 0.069469228 0.58336639 -0.48577091 0.76230943
7.8969998 20.837 0.43200001 0.073086083 0.58286858 -0.49086374 0.76552242
7.8280001 20.851999 0.43200001 0.075270101 0.58257037 -0.49384132 0.76741976
7.7579999 20.867001 0.43200001 0.080336832 0.5818814 -0.49857384 0.77046466
7.7199998 20.864 0.43200001 0.081273593 0.58163375 -0.50029933 0.77149373
7.6500001 20.875 0.43200001 0.0842847 0.58116394 -0.50242901 0.77284563
7.5770001 20.879 0.43200001 0.085738309 0.58078945 -0.5032568 0.77326244
7.507 20.891001 0.43200001 0.0861843 0.58066666 -0.50358564 0.77343392
7.4429998 20.917999 0.43200001 0.086883806 0.58040291 -0.50413513 0.7736721
7.369 20.919001 0.43099999 0.087996118 0.58001935 -0.50488627 0.77399993
7.2930002 20.914 0.43099999 0.087871887 0.57958031 -0.50533211 0.77394789
7.263 20.933001 0.43099999 0.086559482 0.57983369 -0.50524998 0.77393615
7.1919999 20.940001 0.43099999 0.086243376 0.579723 -0.50561714 0.77405775
7.1220002 20.948999 0.43099999 0.085560195 0.57963288 -0.50612897 0.7742489
7.0510001 20.957001 0.43099999 0.085347906 0.57943368 -0.5066579 0.77442229
6.9850001 20.979 0.43099999 0.085144743 0.57943481 -0.50637639 0.77421665
6.9169998 20.993 0.43099999 0.085267581 0.57933724 -0.50642121 0.77418643
6.8379998 20.974001 0.43000001 0.085120477 0.5786072 -0.50703269 0.77402449
6.7969999 20.959999 0.43000001 0.084830642 0.57829553 -0.50710964 0.77381015
6.4619999 21.049 0.43000001 0.093053527 0.57663655 -0.49968964 0.76867312
6.3940001 21.063999 0.43000001 0.097533703 0.57576823 -0.49471414 0.76535219
6.323 21.066999 0.43000001 0.099724442 0.57484603 -0.49183804 0.76308429
6.2870002 21.069 0.42899999 0.098970152 0.57472312 -0.49179581 0.7628662
6.2179999 21.079 0.42899999 0.099627234 0.57418722 -0.48917213 0.76085871
6.1500001 21.091999 0.42899999 0.10340716 0.57295841 -0.48080549 0.75508165
6.0830002 21.108 0.42899999 0.1048938 0.5722248 -0.47630927 0.75187397
6.0139999 21.118999 0.42899999 0.10575655 0.57137465 -0.47130674 0.74818683
5.9450002 21.128 0.42899999 0.10491886 0.57095838 -0.46851838 0.74599659
5.8740001 21.129999 0.42899999 0.10068878 0.57124543 -0.46847805 0.74560797
5.8390002 21.131001 0.42899999 0.099644601 0.57097739 -0.46684533 0.74423707
5.7729998 21.150999 0.42899999 0.095397383 0.57150739 -0.46616843 0.74366277
5.698 21.138 0.428 0.090309165 0.57183516 -0.46733236 0.74400991
5.6350002 21.17 0.42899999 0.089405678 0.57201284 -0.4670054 0.74383205
5.566 21.177999 0.42899999 0.086709186 0.57215071 -0.46643722 0.74326211
5.4959998 21.179001 0.428 0.085347325 0.57189691 -0.46560961 0.74238974
5.4299998 21.198999 0.428 0.084645286 0.57179856 -0.46483603 0.74174857
5.3969998 21.209 0.428 0.083517484 0.57192349 -0.46407416 0.74123985
5.3260002 21.208 0.428 0.079904497 0.57183325 -0.46042365 0.73849028
5.2600002 21.229 0.428 0.078816988 0.57181185 -0.45823079 0.73699147
5.1890001 21.226 0.428 0.079351969 0.57147986 -0.45900771 0.73727471
5.1199999 21.232 0.428 0.077935718 0.57086223 -0.45268258 0.73272038
5.0539999 21.254 0.428 0.079348572 0.57068098 -0.45338506 0.73316509
4.9840002 21.254 0.428 0.076943807 0.57025701 -0.44767037 0.72905564
4.9169998 21.27 0.428 0.078236885 0.57008505 -0.44916439 0.72997719
4.8870001 21.292999 0.428 0.079736196 0.57016891 -0.45083863 0.73123586
4.8150001 21.283001 0.428 0.079307809 0.56958854 -0.44932222 0.72980225
4.7490001 21.304001 0.428 0.079990871 0.56952894 -0.4497475 0.73009217
4.6820002 21.316999 0.428 0.081007324 0.56934702 -0.45079309 0.73070693
4.612 21.32 0.428 0.082481422 0.56890059 -0.45231414 0.73146373
4.546 21.337999 0.428 0.081411593 0.56895936 -0.45252421 0.73151952
4.4770002 21.344 0.428 0.081277058 0.56886077 -0.45313072 0.7318033
4.4429998 21.347 0.428 0.080699876 0.5687865 -0.45283473 0.73149836
4.375 21.357 0.428 0.079796284 0.56867307 -0.45267433 0.73121166
4.3070002 21.367001 0.428 0.078734808 0.56859374 -0.45185396 0.73052722
4.2379999 21.371 0.42699999 0.076219417 0.5685814 -0.45109108 0.72977901
4.1700001 21.382 0.42699999 0.074819051 0.56853151 -0.45049965 0.72922963
4.0999999 21.377001 0.42699999 0.073060796 0.56848836 -0.4515259 0.72965235
4.0349998 21.403999 0.42699999 0.067524701 0.56905687 -0.45036659 0.72884524
4 21.402 0.42699999 0.068615623 0.56893486 -0.4521533 0.72995722
3.9330001 21.413 0.42699999 0.065954581 0.56901705 -0.45200142 0.72968191
3.865 21.424999 0.42699999 0.059669714 0.57015634 -0.45972165 0.73483515
3.7980001 21.438999 0.42699999 0.046184897 0.57151425 -0.46574068 0.73869884
3.7309999 21.448999 0.42699999 0.046690147 0.57147467 -0.46835619 0.7403518
3.6630001 21.457001 0.42699999 0.050161533 0.57113451 -0.47099492 0.74198854
3.595 21.466 0.42699999 0.043412805 0.57193959 -0.49062127 0.7547906
11.272 20.263 0.28 -0.011033477 0.58742034 -0.48290944 0.76051688
11.224 20.326 0.28 -0.0014376454 0.58832246 -0.48235643 0.76078451
11.036 20.136999 0.27900001 0.063008845 0.58488965 -0.49328509 0.76772141
11.064 20.263 0.28 0.05399828 0.58707017 -0.49163833 0.7676428
11.001 20.298 0.28 0.05916068 0.58689207 -0.49227807 0.76829684
10.924 20.309999 0.27900001 0.071791947 0.58549106 -0.49439484 0.76966232
10.849 20.323 0.27900001 0.084912956 0.58374155 -0.49656734 0.77106649
10.769 20.327 0.27900001 0.10345501 0.5807097 -0.49938929 0.77286243
10.697 20.344 0.27900001 0.11379373 0.57883233 -0.49814016 0.77210069
10.625 20.362 0.27900001 0.12003057 0.5775739 -0.49230281 0.76834953
10.583 20.358999 0.27900001 0.12297378 0.57670534 -0.48885742 0.76595896
10.508 20.371 0.27900001 0.12708443 0.57553703 -0.48333338 0.76223654
10.433 20.382 0.27900001 0.13261247 0.57403409 -0.47642154 0.75767982
10.356 20.389999 0.27900001 0.13785318 0.57231349 -0.46673349 0.75125653
10.284 20.407 0.27900001 0.14020184 0.57130969 -0.45920101 0.74626863
10.211 20.423 0.27900001 0.13862933 0.57115227 -0.45121667 0.74096525
10.138 20.437 0.27900001 0.13466664 0.57171828 -0.44637147 0.73772925
10.095 20.431 0.27900001 0.12907457 0.57280499 -0.44475076 0.73659289
10.022 20.445 0.27900001 0.12222494 0.57387578 -0.44068113 0.73380667
9.9549999 20.469 0.27900001 0.11536224 0.57537109 -0.44131908 0.73424989
9.8780003 20.475 0.278 0.11036182 0.57614911 -0.4400062 0.73330283
9.8059998 20.49 0.278 0.10255501 0.57747316 -0.44055587 0.73354095
9.7349997 20.506001 0.278 0.097353116 0.57816577 -0.44101059 0.73365092
9.658 20.511 0.278 0.09310542 0.57844889 -0.43879002 0.73198938
9.5869999 20.527 0.278 0.091140732 0.57822275 -0.43468666 0.72910947
9.5469999 20.525999 0.278 0.089705393 0.57835448 -0.43437129 0.72884798
9.4709997 20.530001 0.278 0.089917779 0.57770497 -0.4304204 0.72600961
9.3979998 20.541 0.278 0.091340482 0.5770396 -0.42713755 0.7237156
9.3269997 20.556 0.278 0.090863794 0.57597238 -0.41880929 0.71791482
9.2550001 20.570999 0.278 0.092506729 0.57453501 -0.41142458 0.7126838
9.1829996 20.582001 0.278 0.094064906 0.5742355 -0.41127235 0.71255845
9.1090002 20.59 0.278 0.093882971 0.57408929 -0.41025931 0.71183228
9.0699997 20.59 0.278 0.090973422 0.57464325 -0.41101348 0.71233636
8.9969997 20.598 0.278 0.096469402 0.57445693 -0.41525677 0.7153638
8.9250002 20.610001 0.278 0.098721862 0.57452011 -0.41793698 0.71728003
8.8540001 20.625 0.278 0.093692809 0.5755738 -0.4189823 0.71805966
8.7819996 20.636 0.27700001 0.094675109 0.57642084 -0.42605203 0.72301084
8.71 20.645 0.27700001 0.090957418 0.57747936 -0.43023187 0.72584784
8.6420002 20.665001 0.27700001 0.085617356 0.57853746 -0.43208992 0.72714353
8.5699997 20.674999 0.27700001 0.080272079 0.57928622 -0.43365258 0.72805953
8.5310001 20.674 0.27700001 0.078183964 0.57941276 -0.43497217 0.72871989
8.4580002 20.68 0.27700001 0.073753126 0.58009052 -0.43882212 0.73110151
8.3900003 20.700001 0.27700001 0.067658365 0.58094603 -0.44077566 0.73236537
8.3199997 20.715 0.27700001 0.063559026 0.58159864 -0.44356698 0.73419917
8.2460003 20.716999 0.27700001 0.0583857 0.58223903 -0.44784504 0.73686934
8.1750002 20.729 0.27700001 0.053370975 0.58284527 -0.45147732 0.73918116
8.1099997 20.754999 0.27700001 0.051331822 0.58349973 -0.45729342 0.74311787
8.0690002 20.745001 0.27700001 0.05328748 0.58358008 -0.46410784 0.74753016
7.9990001 20.757 0.27700001 0.054169532 0.58373332 -0.47200385 0.75263971
7.9330001 20.783001 0.27700001 0.057485484 0.58369601 -0.47924256 0.75741607
7.8520002 20.764 0.27700001 0.067914113 0.58258307 -0.48978174 0.76413447
7.79 20.798 0.27700001 0.073035575 0.58214664 -0.49372235 0.76680553
7.7150002 20.796 0.27700001 0.077875398 0.58134687 -0.49785244 0.76934117
7.652 20.827999 0.27700001 0.082914501 0.58076209 -0.50136822 0.77170557
7.6079998 20.808001 0.27700001 0.084581822 0.58029133 -0.50266212 0.7723738
7.5419998 20.83 0.27700001 0.08422596 0.58039701 -0.50288206 0.7725575
7.467 20.827 0.27700001 0.084610745 0.58006281 -0.50342667 0.77270323
7.4050002 20.860001 0.27700001 0.08578673 0.57976854 -0.50468022 0.77342939
7.329 20.855 0.27599999 0.085827224 0.57882512 -0.50565326 0.77336282
7.2649999 20.882999 0.27700001 0.086208478 0.57883245 -0.50588053 0.77355933
7.1890001 20.875999 0.27599999 0.08520446 0.57849795 -0.50620401 0.77340943
7.1220002 20.893 0.27599999 0.085115254 0.57845247 -0.50596696 0.77321041
7.0840001 20.889 0.27599999 0.084627472 0.57840365 -0.50590211 0.77307796
7.0170002 20.907 0.27599999 0.084617011 0.57834923 -0.50584501 0.77299875
6.9460001 20.914 0.27599999 0.085039251 0.5780375 -0.50574744 0.77274799
6.881 20.938 0.27599999 0.084742479 0.57815135 -0.50556415 0.77268064
6.802 20.919001 0.27599999 0.084885478 0.57755929 -0.50540358 0.77214831
6.4229999 20.98 0.27599999 0.098050967 0.57406098 -0.49412405 0.76375294
6.3629999 21.017 0.27599999 0.10016395 0.57383937 -0.49156231 0.76220596
6.283 20.993 0.27599999 0.104459 0.57171249 -0.48453203 0.75666255
6.223 21.032 0.27599999 0.10699607 0.57140601 -0.48156145 0.75488698
6.1810002 21.013 0.27599999 0.10738975 0.57060492 -0.47957668 0.75307125
6.1160002 21.034 0.27599999 0.10943115 0.56989312 -0.47670093 0.75099742
6.0440001 21.034 0.27599999 0.10932683 0.56921613 -0.47343305 0.74839705
5.9790001 21.056999 0.27599999 0.10776542 0.56934589 -0.47215071 0.74745864
5.9050002 21.048 0.27599999 0.10489494 0.5692277 -0.47156176 0.74658799
5.8439999 21.082001 0.27599999 0.10006624 0.57009053 -0.46921131 0.74510109
5.7729998 21.083 0.27599999 0.094490707 0.57065564 -0.46952993 0.7450065
5.7080002 21.108999 0.27599999 0.091465935 0.57108718 -0.46946335 0.74491775
5.6690001 21.094999 0.27599999 0.089925811 0.57085252 -0.46905324 0.74429172
5.6040001 21.118 0.27599999 0.087940663 0.57106125 -0.46792001 0.74350095
5.5310001 21.108999 0.27599999 0.086583368 0.57084215 -0.46722317 0.74273479
5.467 21.136 0.27599999 0.086412035 0.57087356 -0.46650481 0.74228728
5.3969998 21.141001 0.27599999 0.086103953 0.57053047 -0.46421996 0.7405532
5.3319998 21.162001 0.27599999 0.086506732 0.57048655 -0.46490425 0.74099547
5.2600002 21.155001 0.27599999 0.08296781 0.57017595 -0.45864499 0.73643702
5.2309999 21.183001 0.27599999 0.08197552 0.57040256 -0.45824689 0.73625356
5.1589999 21.174 0.27599999 0.082360663 0.56997377 -0.45789272 0.73574394
5.092 21.190001 0.27599999 0.079551481 0.56983846 -0.45332363 0.73249346
5.0219998 21.190001 0.27500001 0.079593964 0.56954718 -0.45331889 0.73226851
4.9580002 21.218 0.27500001 0.079908423 0.56959522 -0.45356464 0.73249227
4.8839998 21.204 0.27500001 0.077889487 0.56892681 -0.45040345 0.72979981
4.823 21.243 0.27500001 0.077448525 0.56929851 -0.45119202 0.73052943
4.7839999 21.225 0.27500001 0.078466401 0.56864548 -0.45163795 0.73040503
4.7189999 21.246 0.27500001 0.07760644 0.56857347 -0.44955674 0.72897178
4.6490002 21.249001 0.27500001 0.07867641 0.56824291 -0.45113239 0.72980165
4.5819998 21.261 0.27500001 0.080180921 0.56807488 -0.45340014 0.73123848
4.5159998 21.278999 0.27500001 0.08028271 0.56803411 -0.45360261 0.73134351
4.4429998 21.264 0.27500001 0.08103089 0.56731987 -0.45391256 0.7310639
4.3790002 21.294001 0.27500001 0.080927312 0.56742918 -0.45415226 0.73128611
4.3099999 21.295 0.27500001 0.079944856 0.56724834 -0.45310301 0.73038632
4.2810001 21.323999 0.27500001 0.078872509 0.56763065 -0.45372212 0.73095089
4.21 21.316 0.27500001 0.07736031 0.56754047 -0.45484552 0.7314173
4.1420002 21.327 0.27500001 0.075924098 0.56751812 -0.45379081 0.73059386
4.073 21.33 0.27500001 0.072416529 0.56759971 -0.45209804 0.72925043
4.007 21.344 0.27500001 0.068127163 0.567945 -0.45166337 0.72883648
3.9400001 21.357 0.27500001 0.064221397 0.56837291 -0.45305508 0.72967875
3.8729999 21.372999 0.27500001 0.056249417 0.56955802 -0.45993027 0.73423171
3.8380001 21.367001 0.27500001 0.054487437 0.56949842 -0.45997775 0.73408234
3.77 21.379 0.27500001 0.041780114 0.57069707 -0.46680528 0.73847675
3.7060001 21.405001 0.27500001 0.037447169 0.57136363 -0.47495538 0.74393636
3.6340001 21.393 0.27500001 0.030174706 0.57155436 -0.48315248 0.74901354
11.276 20.372 0.17 -0.014221488 0.5876351 -0.47402841 0.75512922
11.196 20.378 0.17 0.0052448008 0.58859104 -0.47593665 0.75695616
11.045 20.253 0.171 0.054634869 0.58660507 -0.48871741 0.76546401
11.081 20.396999 0.171 0.02967893 0.58887482 -0.48069519 0.76073796
11.004 20.407 0.171 0.046311375 0.58827746 -0.48323154 0.76271087
10.929 20.42 0.171 0.06703677 0.5868367 -0.49030745 0.76764101
10.856 20.438 0.171 0.082686178 0.58515429 -0.49152559 0.76866114
10.775 20.440001 0.171 0.1031991 0.58196419 -0.48793367 0.76642787
10.706 20.465 0.171 0.12237779 0.57812732 -0.48908389 0.76707923
10.629 20.474001 0.171 0.13548355 0.5746274 -0.48278305 0.76264793
10.56 20.497999 0.171 0.14162353 0.5728631 -0.47458553 0.75727195
10.514 20.488001 0.171 0.14467938 0.57166547 -0.46926892 0.75362247
10.439 20.5 0.171 0.14939675 0.5696891 -0.4590233 0.7467044
10.364 20.513 0.171 0.15013783 0.56903148 -0.45317501 0.74276894
10.291 20.527 0.171 0.14957981 0.56849253 -0.44575846 0.73773873
10.21 20.527 0.171 0.14385423 0.56966168 -0.44299939 0.73583752
10.14 20.547001 0.171 0.13378939 0.5720892 -0.44121271 0.73474777
10.058 20.544001 0.171 0.12436132 0.57394856 -0.44037706 0.73403996
10.037 20.584 0.171 0.12163998 0.57477665 -0.44058168 0.73435462
9.974 20.617001 0.171 0.11548492 0.57641685 -0.44274491 0.73594576
9.9189997 20.67 0.171 0.11005975 0.57787234 -0.44430938 0.7371977
9.8439999 20.679001 0.171 0.10319007 0.57913351 -0.44511315 0.73767847
9.7700005 20.690001 0.171 0.098918259 0.57976806 -0.4445363 0.73724371
9.6920004 20.693001 0.171 0.099065781 0.5791899 -0.43943712 0.73374379
9.6160002 20.700001 0.171 0.099934816 0.57819992 -0.43210918 0.72871149
9.5489998 20.726999 0.171 0.10180907 0.57686996 -0.42315599 0.72263753
9.5019999 20.709 0.171 0.10561606 0.57542545 -0.41910616 0.719666
9.4390001 20.743999 0.171 0.1087161 0.57344043 -0.40890342 0.71263957
9.3470001 20.715 0.171 0.10707425 0.57164544 -0.40119252 0.70654005
9.2530003 20.679001 0.171 0.10348411 0.57076246 -0.39651933 0.70264238
9.1859999 20.702 0.171 0.095558614 0.57107997 -0.39117938 0.69877398
9.1120005 20.711 0.171 0.089149833 0.57176626 -0.38984635 0.69774246
9.0459995 20.738001 0.171 0.0809296 0.5735873 -0.39246196 0.69969875
9 20.719999 0.171 0.083034724 0.57441211 -0.39926565 0.7044552
8.9379997 20.757999 0.171 0.08156804 0.57606828 -0.4058601 0.70938736
8.882 20.806 0.171 0.083245583 0.57727104 -0.4127031 0.71448964
8.8260002 20.856001 0.171 0.084231943 0.57868314 -0.42078787 0.72043848
8.7510004 20.861 0.171 0.083693743 0.57953465 -0.42697528 0.72468811
8.6800003 20.875999 0.171 0.082618937 0.58043736 -0.43306461 0.72888845
8.6070004 20.886 0.171 0.078532189 0.58109951 -0.4347907 0.72999102
8.5679998 20.882999 0.171 0.077348761 0.5813688 -0.43662256 0.73117149
8.4980001 20.899 0.17200001 0.072196104 0.58217287 -0.43872675 0.73254263
8.4280005 20.916 0.17200001 0.066859111 0.58278626 -0.43946588 0.73296678
8.3520002 20.917 0.17200001 0.061225515 0.58331096 -0.44034767 0.73342097
8.2690001 20.898001 0.17200001 0.054017924 0.58380258 -0.44180995 0.73412496
